5.56539 4.14 5.15407 0 0
5.63346 4.14313 4.7505 0 0
5.66679 4.14521 4.76454 0 0
5.76745 4.15105 4.58386 0 0
5.80091 4.15306 4.52828 0 0
5.83438 4.15499 4.44484 0 0
5.86748 4.15713 4.44495 0 0
5.90064 4.15915 4.38937 0 0
5.93347 4.16129 4.38948 0 0
5.96619 4.16332 4.36174 0 0
5.99883 4.16517 4.2783 0 0
6.03108 4.16696 4.20879 0 0
6.09445 4.17066 4.18115 0 0
6.12597 4.17241 4.13948 0 0
6.15747 4.1741 4.06997 0 0
6.18858 4.176 4.084 0 0
6.21984 4.17776 4.02841 0 0
6.25098 4.17956 3.98674 0 0
6.28193 4.18149 3.98684 0 0
6.34366 4.18539 3.98705 0 0
6.3746 4.18728 3.94538 0 0
6.40542 4.18923 3.93156 0 0
6.43631 4.19113 3.88989 0 0
6.46679 4.19327 3.95961 0 0
6.4977 4.19508 3.90402 0 0
6.52863 4.1968 3.84842 0 0
6.55941 4.19859 3.8346 0 0
6.59018 4.2004 3.8347 0 0
6.62095 4.20221 3.83481 0 0
6.65185 4.20398 3.80706 0 0
6.6826 4.20588 3.83501 0 0
6.71344 4.20778 3.84904 0 0
6.7444 4.20968 3.84914 0 0
6.77534 4.21166 3.87709 0 0
6.80637 4.21367 3.90505 0 0
6.83754 4.21567 3.91907 0 0
6.86889 4.21766 3.91918 0 0
6.90036 4.21968 3.91928 0 0
6.96381 4.22369 3.90557 0 0
6.99564 4.22577 3.94745 0 0
7.02785 4.22771 3.94756 0 0
7.06 4.22978 4.01728 0 0
7.09272 4.23162 3.97562 0 0
7.12541 4.23359 3.98966 0 0
7.15825 4.23557 4.00369 0 0
7.19118 4.23763 4.03165 0 0
7.22435 4.23965 4.03176 0 0
7.25754 4.24176 4.05972 0 0
7.29094 4.24384 4.05983 0 0
7.32414 4.24613 4.14348 0 0
7.35787 4.24816 4.10182 0 0
7.39188 4.25007 4.00447 0 0
7.42505 4.25259 4.17167 0 0
7.45888 4.25464 4.15786 0 0
7.49255 4.25682 4.21367 0 0
7.52651 4.25877 4.19986 0 0
7.56041 4.26068 4.19997 0 0
7.59423 4.26264 4.22793 0 0
7.62809 4.2645 4.22804 0 0
7.66176 4.26649 4.26993 0 0
7.69538 4.26844 4.29789 0 0
7.72892 4.27038 4.31193 0 0
7.76217 4.27243 4.36773 0 0
7.79555 4.27432 4.34 0 0
7.82849 4.2764 4.38188 0 0
7.86131 4.27845 4.39591 0 0
7.89387 4.28052 4.40995 0 0
7.92606 4.28271 4.45183 0 0
7.958 4.2849 4.47978 0 0
8.02086 4.28943 4.52176 0 0
8.05178 4.29174 4.53579 0 0
8.08243 4.29409 4.53589 0 0
8.11277 4.29646 4.53599 0 0
8.14272 4.29894 4.56394 0 0
8.17252 4.3014 4.56403 0 0
8.20206 4.30388 4.56413 0 0
8.23132 4.30641 4.57815 0 0
8.26056 4.30885 4.53647 0 0
8.28943 4.31145 4.55049 0 0
8.31835 4.3139 4.49489 0 0
8.34694 4.31651 4.49498 0 0
8.37545 4.31911 4.48115 0 0
8.40379 4.32173 4.48125 0 0
8.43214 4.32431 4.45349 0 0
8.46024 4.32701 4.48143 0 0
8.48833 4.32965 4.49545 0 0
8.51672 4.33206 4.41199 0 0
8.54455 4.33481 4.48171 0 0
8.57249 4.33749 4.50965 0 0
8.60056 4.34006 4.48189 0 0
8.62846 4.34277 4.4959 0 0
8.65636 4.34551 4.49599 0 0
8.68423 4.34826 4.48216 0 0
8.71189 4.35118 4.5101 0 0
8.73945 4.35419 4.55196 0 0
8.76698 4.35723 4.5799 0 0
8.79473 4.36015 4.52429 0 0
8.82211 4.36328 4.55223 0 0
8.84965 4.36633 4.51054 0 0
8.87685 4.36957 4.53848 0 0
8.90404 4.37282 4.55249 0 0
8.9311 4.37613 4.58042 0 0
8.95791 4.37955 4.65013 0 0
8.98498 4.38279 4.62237 0 0
9.03862 4.38947 4.63647 0 0
9.06528 4.39287 4.65047 0 0
9.09174 4.39636 4.69233 0 0
9.11824 4.39982 4.70634 0 0
9.14474 4.40325 4.6925 0 0
9.17105 4.40679 4.70651 0 0
9.19729 4.41036 4.72051 0 0
9.2233 4.41405 4.77629 0 0
9.24946 4.41761 4.76245 0 0
9.27571 4.42108 4.70684 0 0
9.30142 4.42488 4.79046 0 0
9.32738 4.42847 4.77662 0 0
9.35326 4.43207 4.7767 0 0
9.37868 4.43591 4.88818 0 0
9.40451 4.43943 4.87433 0 0
9.43011 4.44303 4.91619 0 0
9.45586 4.44647 4.90235 0 0
9.48146 4.44996 4.93027 0 0
9.5071 4.45332 4.93036 0 0
9.53259 4.45673 4.97221 0 0
9.55811 4.46005 5.00014 0 0
9.65969 4.47315 5.18148 0 0
9.68517 4.47628 5.18156 0 0
9.7105 4.47949 5.22341 0 0
5.42873 4.166 5.64088 0 0
5.59645 4.17476 4.98701 0 0
5.63029 4.17648 4.86181 0 0
5.66398 4.17832 4.77838 0 0
5.73104 4.18223 4.69506 0 0
5.76438 4.18431 4.69517 0 0
5.79814 4.18609 4.55604 0 0
5.83159 4.18804 4.48653 0 0
5.86476 4.19013 4.47271 0 0
5.93088 4.19422 4.40332 0 0
5.96384 4.19612 4.31988 0 0
5.99616 4.19822 4.34784 0 0
6.02845 4.19996 4.2644 0 0
6.06013 4.20185 4.27843 0 0
6.09192 4.20353 4.20892 0 0
6.12361 4.20519 4.12548 0 0
6.1549 4.20703 4.12558 0 0
6.18624 4.20879 4.08391 0 0
6.2175 4.21057 4.04225 0 0
6.24855 4.21247 4.04235 0 0
6.27961 4.21432 4.01461 0 0
6.31065 4.21619 3.98686 0 0
6.34177 4.21798 3.91734 0 0
6.37252 4.22002 3.94529 0 0
6.40338 4.22196 3.93147 0 0
6.43402 4.22404 3.97335 0 0
6.46497 4.22588 3.91775 0 0
6.49593 4.22768 3.86216 0 0
6.52664 4.22959 3.87619 0 0
6.5574 4.23141 3.87629 0 0
6.58837 4.23309 3.8207 0 0
6.61909 4.23495 3.83472 0 0
6.64996 4.23675 3.8209 0 0
6.68071 4.23866 3.84885 0 0
6.71167 4.24049 3.83503 0 0
6.74251 4.24245 3.86299 0 0
6.77346 4.24442 3.89094 0 0
6.80467 4.2463 3.86319 0 0
6.83574 4.24836 3.90507 0 0
6.86709 4.25034 3.90517 0 0
6.8986 4.25231 3.89135 0 0
6.93012 4.25437 3.91931 0 0
6.96181 4.25644 3.94726 0 0
6.99383 4.25838 3.93344 0 0
7.02596 4.26037 3.94748 0 0
7.05827 4.26234 3.96151 0 0
7.09078 4.26431 3.97554 0 0
7.12359 4.26619 3.9478 0 0
7.1564 4.2682 3.96184 0 0
7.18927 4.27028 4.00372 0 0
7.22224 4.27243 4.05952 0 0
7.2556 4.27442 4.03179 0 0
7.2889 4.27655 4.05975 0 0
7.32235 4.27868 4.07378 0 0
7.35589 4.28081 4.08782 0 0
7.38936 4.28304 4.14363 0 0
7.42315 4.28511 4.12981 0 0
7.45681 4.28728 4.1717 0 0
7.49067 4.28932 4.17181 0 0
7.52452 4.29133 4.18585 0 0
7.55838 4.29329 4.19989 0 0
7.59213 4.29529 4.24177 0 0
7.62605 4.29715 4.22796 0 0
7.65975 4.29911 4.25592 0 0
7.69341 4.30104 4.26996 0 0
7.72696 4.30299 4.284 0 0
7.76046 4.30489 4.27018 0 0
7.79354 4.30695 4.32599 0 0
7.82659 4.30895 4.34003 0 0
7.85935 4.31102 4.36798 0 0
7.89182 4.31314 4.40986 0 0
7.924 4.31529 4.45174 0 0
7.95598 4.31743 4.46577 0 0
7.98772 4.31955 4.45196 0 0
8.01894 4.32184 4.49383 0 0
8.04981 4.32418 4.53571 0 0
8.08063 4.32636 4.49404 0 0
8.11088 4.32879 4.53591 0 0
8.14111 4.33103 4.49424 0 0
8.17069 4.33358 4.56395 0 0
8.20036 4.33592 4.5362 0 0
8.22956 4.33845 4.57807 0 0
8.25877 4.34084 4.55032 0 0
8.28765 4.34334 4.56434 0 0
8.31651 4.34579 4.53658 0 0
8.34517 4.34828 4.52275 0 0
8.37374 4.35077 4.495 0 0
8.402 4.3534 4.52294 0 0
8.43038 4.35592 4.49518 0 0
8.45869 4.35844 4.46743 0 0
8.48673 4.36112 4.49537 0 0
8.51482 4.36374 4.49546 0 0
8.54289 4.36639 4.49555 0 0
8.57087 4.3691 4.50957 0 0
8.59888 4.37179 4.49573 0 0
8.62676 4.37462 4.50975 0 0
8.65469 4.37742 4.49592 0 0
8.68242 4.38038 4.52385 0 0
8.71018 4.38334 4.52394 0 0
8.73791 4.38632 4.51011 0 0
8.76541 4.38947 4.55197 0 0
8.79292 4.39261 4.56598 0 0
8.82049 4.3957 4.53822 0 0
8.8476 4.39909 4.62185 0 0
8.87507 4.40221 4.58017 0 0
8.9022 4.40553 4.60811 0 0
8.92926 4.40888 4.63604 0 0
8.95628 4.41223 4.65005 0 0
8.98325 4.41556 4.65014 0 0
9.03684 4.42241 4.67816 0 0
9.06361 4.42582 4.66432 0 0
9.09012 4.42936 4.69225 0 0
9.11646 4.433 4.74803 0 0
9.143 4.43647 4.72027 0 0
9.16946 4.43998 4.6925 0 0
9.19564 4.44362 4.72043 0 0
9.2217 4.44731 4.76229 0 0
9.24769 4.45102 4.80414 0 0
9.27394 4.45451 4.74853 0 0
9.29979 4.45821 4.79038 0 0
9.32558 4.46191 4.83224 0 0
9.35121 4.46563 4.90194 0 0
9.37714 4.46911 4.87417 0 0
9.40283 4.4727 4.9021 0 0
9.42849 4.47622 4.93003 0 0
9.4544 4.47952 4.87442 0 0
9.48009 4.48289 4.8745 0 0
9.50555 4.48633 4.93027 0 0
9.63275 4.50274 5.15347 0 0
9.65818 4.5059 5.1814 0 0
9.68368 4.50897 5.18148 0 0
9.75976 4.51831 5.25134 0 0
9.78527 4.52132 5.22357 0 0
5.42632 4.19886 5.54333 0 0
5.56042 4.2058 4.97289 0 0
5.62796 4.20928 4.75033 0 0
5.66132 4.21131 4.76437 0 0
5.69505 4.21311 4.66701 0 0
5.72871 4.21495 4.58358 0 0
5.76214 4.21694 4.55584 0 0
5.79552 4.21896 4.5281 0 0
5.82896 4.22088 4.4586 0 0
5.86208 4.22298 4.45871 0 0
5.92851 4.22677 4.29184 0 0
5.99337 4.23097 4.34775 0 0
6.02572 4.23271 4.26431 0 0
6.05776 4.23441 4.1948 0 0
6.0893 4.23628 4.20883 0 0
6.12114 4.23786 4.09754 0 0
6.15249 4.23971 4.09765 0 0
6.18402 4.24138 4.01421 0 0
6.21529 4.24318 3.98647 0 0
6.24634 4.2451 4.00049 0 0
6.27733 4.24705 4.01452 0 0
6.30852 4.24885 3.95893 0 0
6.33951 4.25077 3.94511 0 0
6.3705 4.25266 3.91736 0 0
6.40117 4.25475 3.97316 0 0
6.43224 4.25656 3.90365 0 0
6.46325 4.25838 3.84805 0 0
6.49399 4.26032 3.86208 0 0
6.52492 4.26211 3.82041 0 0
6.55572 4.26396 3.82051 0 0
6.58646 4.26581 3.83454 0 0
6.61726 4.26764 3.83464 0 0
6.64808 4.26949 3.83475 0 0
6.67883 4.2714 3.8627 0 0
6.70974 4.27327 3.8628 0 0
6.7406 4.27523 3.89075 0 0
6.77167 4.27711 3.87693 0 0
6.80265 4.27914 3.91881 0 0
6.83391 4.28106 3.90499 0 0
6.86519 4.28307 3.91902 0 0
6.8967 4.28501 3.9052 0 0
6.92823 4.28706 3.93315 0 0
6.96001 4.28905 3.93326 0 0
6.99196 4.29102 3.93336 0 0
7.02416 4.29295 3.91955 0 0
7.05631 4.29503 3.97535 0 0
7.08879 4.29702 3.98938 0 0
7.12138 4.29904 4.01734 0 0
7.15413 4.30109 4.0453 0 0
7.18703 4.30316 4.07326 0 0
7.22046 4.30499 3.98982 0 0
7.25344 4.30723 4.07348 0 0
7.28672 4.30935 4.10144 0 0
7.32022 4.31143 4.10155 0 0
7.35364 4.31362 4.14343 0 0
7.38732 4.3157 4.14354 0 0
7.42088 4.31791 4.19935 0 0
7.45472 4.31992 4.18554 0 0
7.48849 4.32201 4.2135 0 0
7.52234 4.32403 4.22754 0 0
7.55624 4.32599 4.22765 0 0
7.59009 4.32795 4.24169 0 0
7.62409 4.32978 4.20003 0 0
7.65745 4.33198 4.32546 0 0
7.69116 4.33389 4.32557 0 0
7.72479 4.33578 4.31176 0 0
7.75796 4.33791 4.39542 0 0
7.79134 4.3398 4.36768 0 0
7.82443 4.34176 4.36779 0 0
7.85705 4.34392 4.43752 0 0
7.88956 4.346 4.46548 0 0
7.92198 4.34796 4.43774 0 0
7.95392 4.3501 4.46569 0 0
7.98553 4.35228 4.49365 0 0
8.01697 4.35441 4.47983 0 0
8.04797 4.35662 4.49385 0 0
8.07861 4.35892 4.5218 0 0
8.10899 4.36119 4.53583 0 0
8.13906 4.36352 4.54985 0 0
8.16885 4.36586 4.56387 0 0
8.19851 4.36816 4.55005 0 0
8.22787 4.37052 4.55014 0 0
8.25713 4.37282 4.52239 0 0
8.28613 4.37519 4.50856 0 0
8.31486 4.37764 4.52258 0 0
8.34358 4.38 4.49483 0 0
8.37207 4.38247 4.49492 0 0
8.40047 4.38495 4.49501 0 0
8.4288 4.38746 4.48118 0 0
8.45698 4.39004 4.4952 0 0
8.48508 4.39268 4.50921 0 0
8.51323 4.39531 4.49538 0 0
8.54122 4.39802 4.5094 0 0
8.56928 4.40076 4.49556 0 0
8.59724 4.40357 4.49566 0 0
8.62512 4.40648 4.50967 0 0
8.65289 4.40949 4.53761 0 0
8.68071 4.4125 4.5377 0 0
8.70842 4.4156 4.55171 0 0
8.73616 4.41867 4.53788 0 0
8.7638 4.42182 4.53797 0 0
8.79115 4.42514 4.59375 0 0
8.81853 4.42841 4.62169 0 0
8.84589 4.43168 4.6357 0 0
8.87317 4.43499 4.64971 0 0
8.90042 4.43829 4.6498 0 0
8.92762 4.44158 4.63596 0 0
8.95461 4.44498 4.66389 0 0
8.98153 4.44842 4.6779 0 0
9.00843 4.45184 4.67799 0 0
9.03513 4.45537 4.70592 0 0
9.0619 4.45886 4.69208 0 0
9.0885 4.46241 4.69217 0 0
9.11489 4.4661 4.73402 0 0
9.14148 4.4696 4.69234 0 0
9.16764 4.47336 4.74811 0 0
9.19392 4.47699 4.7482 0 0
9.22006 4.48066 4.7622 0 0
9.24616 4.48432 4.77621 0 0
9.27221 4.48793 4.77629 0 0
9.29778 4.49182 4.90169 0 0
9.32392 4.49526 4.84608 0 0
9.34961 4.49893 4.90185 0 0
9.37536 4.50251 4.92978 0 0
9.4012 4.50593 4.91594 0 0
9.42692 4.5094 4.92995 0 0
9.47791 4.51637 5.05543 0 0
9.50397 4.51939 4.94412 0 0
9.58016 4.52935 5.1393 0 0
9.60564 4.53249 5.16723 0 0
9.63124 4.53552 5.15339 0 0
9.65652 4.53875 5.22309 0 0
9.68218 4.54166 5.1814 0 0
9.73293 4.54782 5.23726 0 0
5.32482 4.22618 5.84925 0 0
5.49034 4.23553 5.29283 0 0
5.5578 4.23885 4.98673 0 0
5.62509 4.24243 4.81987 0 0
5.65881 4.24419 4.72251 0 0
5.69238 4.24607 4.66692 0 0
5.72557 4.24818 4.70881 0 0
5.82611 4.25376 4.47243 0 0
5.85919 4.25582 4.47254 0 0
5.89239 4.25773 4.40304 0 0
5.92529 4.25971 4.3753 0 0
5.95787 4.26176 4.38933 0 0
5.99048 4.26359 4.31982 0 0
6.02279 4.26538 4.26423 0 0
6.05484 4.26713 4.20864 0 0
6.08661 4.26891 4.1809 0 0
6.11838 4.2706 4.11138 0 0
6.14985 4.27241 4.09757 0 0
6.18113 4.2743 4.11159 0 0
6.21237 4.27618 4.1117 0 0
6.24382 4.27788 4.02826 0 0
6.27518 4.27963 3.95874 0 0
6.30609 4.28165 4.00062 0 0
6.33724 4.28349 3.95895 0 0
6.36816 4.28547 3.97298 0 0
6.39923 4.28732 3.93131 0 0
6.43016 4.28924 3.91749 0 0
6.46112 4.29111 3.88974 0 0
6.49205 4.29295 3.862 0 0
6.52283 4.29486 3.87602 0 0
6.55369 4.29669 3.8622 0 0
6.58451 4.29854 3.86231 0 0
6.61537 4.30036 3.84849 0 0
6.64612 4.30228 3.87644 0 0
6.67694 4.30418 3.89046 0 0
6.70778 4.30609 3.90449 0 0
6.73864 4.30804 3.93244 0 0
6.76982 4.30986 3.89077 0 0
6.80082 4.31186 3.91873 0 0
6.83208 4.31378 3.90491 0 0
6.8634 4.31573 3.90501 0 0
6.89478 4.31776 3.93296 0 0
6.92642 4.3197 3.91914 0 0
6.95828 4.32161 3.8914 0 0
6.99 4.32373 3.96113 0 0
7.02212 4.32571 3.96124 0 0
7.05439 4.3277 3.97527 0 0
7.08703 4.32958 3.9336 0 0
7.1195 4.33168 3.98941 0 0
7.15223 4.33374 4.01737 0 0
7.18517 4.33578 4.0314 0 0
7.21825 4.33785 4.04544 0 0
7.2514 4.33996 4.07339 0 0
7.28473 4.34205 4.08743 0 0
7.31811 4.34418 4.11539 0 0
7.35179 4.34619 4.08765 0 0
7.38537 4.34833 4.11561 0 0
7.41892 4.35051 4.17142 0 0
7.45278 4.35252 4.15761 0 0
7.48649 4.35464 4.1995 0 0
7.52038 4.35664 4.19961 0 0
7.55419 4.35868 4.22757 0 0
7.58803 4.36066 4.24161 0 0
7.62178 4.36267 4.26957 0 0
7.65552 4.36465 4.28361 0 0
7.68919 4.36662 4.29764 0 0
7.72268 4.36865 4.3256 0 0
7.756 4.37068 4.36749 0 0
7.78933 4.37261 4.35367 0 0
7.82241 4.37458 4.35378 0 0
7.85523 4.3766 4.36782 0 0
7.88779 4.37863 4.38185 0 0
7.9199 4.38082 4.45158 0 0
7.9518 4.38296 4.49346 0 0
7.98358 4.38501 4.47964 0 0
8.01498 4.38713 4.47974 0 0
8.04601 4.3893 4.49377 0 0
8.07672 4.39151 4.5078 0 0
8.10709 4.39376 4.53575 0 0
8.13725 4.39599 4.53585 0 0
8.16723 4.39816 4.5081 0 0
8.19671 4.40053 4.54997 0 0
8.2261 4.4028 4.55006 0 0
8.25527 4.40508 4.55016 0 0
8.28429 4.40735 4.53633 0 0
8.3132 4.40961 4.50858 0 0
8.34185 4.41195 4.50867 0 0
8.37037 4.41433 4.50877 0 0
8.39876 4.41675 4.50886 0 0
8.42712 4.41918 4.49503 0 0
8.45533 4.42169 4.49512 0 0
8.48349 4.42429 4.49521 0 0
8.51155 4.42699 4.50923 0 0
8.5396 4.42973 4.50932 0 0
8.5676 4.43256 4.50941 0 0
8.5955 4.4355 4.52342 0 0
8.62342 4.43849 4.52351 0 0
8.65124 4.44157 4.53753 0 0
8.67904 4.4447 4.53762 0 0
8.70666 4.44797 4.57948 0 0
8.73435 4.45117 4.57957 0 0
8.78941 4.45777 4.62152 0 0
8.81694 4.46101 4.60768 0 0
8.8444 4.46428 4.59384 0 0
8.87163 4.46766 4.62178 0 0
8.89874 4.47107 4.66364 0 0
8.92592 4.47443 4.66373 0 0
8.95299 4.47781 4.66381 0 0
8.98003 4.48123 4.64997 0 0
9.00683 4.48477 4.67791 0 0
9.03348 4.48839 4.71976 0 0
9.06022 4.49195 4.70593 0 0
9.08685 4.49558 4.70601 0 0
9.11324 4.49933 4.74787 0 0
9.13962 4.50304 4.76187 0 0
9.16597 4.50671 4.76196 0 0
9.19234 4.51032 4.73419 0 0
9.21865 4.51392 4.70643 0 0
9.2443 4.51787 4.84575 0 0
9.27026 4.52156 4.87368 0 0
9.29627 4.52514 4.87376 0 0
9.32223 4.52868 4.87384 0 0
9.34802 4.53226 4.90177 0 0
9.37411 4.53556 4.83224 0 0
9.39953 4.53925 4.94371 0 0
9.42524 4.54265 4.95771 0 0
9.45089 4.54603 4.98564 0 0
9.4765 4.54936 5.01357 0 0
9.52783 4.55574 5.01374 0 0
9.57848 4.56232 5.18099 0 0
9.60417 4.5653 5.15322 0 0
9.62959 4.56841 5.19508 0 0
9.6804 4.57455 5.26486 0 0
9.70584 4.57755 5.27887 0 0
9.73119 4.58058 5.3068 0 0
9.7817 4.5867 5.40443 0 0
9.80706 4.5897 5.41843 0 0
9.83221 4.59276 5.47421 0 0
5.48824 4.26831 5.22313 0 0
5.55536 4.27182 4.98665 0 0
5.58868 4.27376 4.97283 0 0
5.6225 4.27542 4.8337 0 0
5.65592 4.27734 4.80597 0 0
5.68964 4.27907 4.69469 0 0
5.72318 4.2809 4.62518 0 0
5.75613 4.2831 4.70883 0 0
5.78985 4.28476 4.55578 0 0
5.82315 4.28665 4.5002 0 0
5.85617 4.28868 4.50031 0 0
5.88912 4.29067 4.48649 0 0
5.92196 4.29261 4.45875 0 0
5.95493 4.29435 4.34747 0 0
5.98734 4.29626 4.33366 0 0
6.01963 4.29808 4.29199 0 0
6.05175 4.29984 4.2364 0 0
6.08355 4.30168 4.22258 0 0
6.11536 4.30341 4.167 0 0
6.14705 4.30513 4.1114 0 0
6.17859 4.30692 4.06974 0 0
6.20992 4.30879 4.06984 0 0
6.24137 4.31056 4.01425 0 0
6.27247 4.31252 4.0422 0 0
6.30389 4.31426 3.95876 0 0
6.33489 4.31625 3.98671 0 0
6.36607 4.31809 3.94505 0 0
6.39712 4.31999 3.93123 0 0
6.42826 4.32179 3.87563 0 0
6.45912 4.32375 3.88966 0 0
6.49006 4.32563 3.87584 0 0
6.52087 4.32754 3.88987 0 0
6.55182 4.32936 3.86212 0 0
6.58271 4.33119 3.8483 0 0
6.6135 4.3331 3.86233 0 0
6.64429 4.335 3.87635 0 0
6.67492 4.33703 3.94608 0 0
6.70593 4.33886 3.91833 0 0
6.73682 4.3408 3.93236 0 0
6.768 4.34261 3.89069 0 0
6.799 4.34461 3.91864 0 0
6.83031 4.34648 3.8909 0 0
6.86157 4.34846 3.90493 0 0
6.89287 4.3505 3.94681 0 0
6.92456 4.35241 3.91906 0 0
6.95618 4.35446 3.96094 0 0
6.98815 4.3564 3.94712 0 0
7.02007 4.3585 4.00293 0 0
7.05246 4.36041 3.97519 0 0
7.08488 4.36242 3.98922 0 0
7.11757 4.36438 3.9754 0 0
7.15023 4.36649 4.01728 0 0
7.18315 4.36855 4.03132 0 0
7.2162 4.37064 4.04535 0 0
7.24937 4.37274 4.07331 0 0
7.28268 4.37483 4.08735 0 0
7.31611 4.37693 4.10138 0 0
7.34949 4.3791 4.15719 0 0
7.38311 4.3812 4.17123 0 0
7.41686 4.38324 4.17134 0 0
7.45067 4.38529 4.17145 0 0
7.48443 4.38737 4.19941 0 0
7.51832 4.38937 4.19953 0 0
7.55222 4.39138 4.19964 0 0
7.586 4.39343 4.2276 0 0
7.6198 4.39544 4.24164 0 0
7.6535 4.39748 4.2696 0 0
7.68736 4.39936 4.22794 0 0
7.72066 4.40152 4.3116 0 0
7.75403 4.40357 4.33956 0 0
7.78722 4.40561 4.36752 0 0
7.82031 4.40758 4.36763 0 0
7.85317 4.40957 4.36774 0 0
7.88566 4.41167 4.40962 0 0
7.91778 4.41384 4.47934 0 0
7.94998 4.41577 4.43768 0 0
7.98159 4.41791 4.47956 0 0
8.01308 4.41995 4.46574 0 0
8.04424 4.42202 4.45192 0 0
8.07472 4.42433 4.53556 0 0
8.10521 4.42649 4.53566 0 0
8.13544 4.42861 4.52184 0 0
8.16531 4.43082 4.53586 0 0
8.19491 4.43303 4.54988 0 0
8.22437 4.4352 4.53606 0 0
8.25362 4.43737 4.52223 0 0
8.28261 4.43958 4.52233 0 0
8.31143 4.4418 4.52242 0 0
8.34015 4.44403 4.50859 0 0
8.36864 4.44635 4.52261 0 0
8.397 4.44871 4.53663 0 0
8.42541 4.45104 4.50887 0 0
8.45363 4.45352 4.50897 0 0
8.48188 4.45603 4.48121 0 0
8.50984 4.4588 4.52307 0 0
8.538 4.46153 4.49532 0 0
8.56585 4.46452 4.53718 0 0
8.59381 4.46753 4.53727 0 0
8.62157 4.47071 4.57913 0 0
8.64956 4.47379 4.53745 0 0
8.67719 4.47716 4.59323 0 0
8.70499 4.4804 4.5794 0 0
8.7325 4.48386 4.63518 0 0
8.76017 4.48715 4.62135 0 0
8.81523 4.49384 4.62152 0 0
8.84256 4.49725 4.64946 0 0
8.86989 4.50061 4.64955 0 0
8.92429 4.50738 4.66364 0 0
8.95148 4.51073 4.63588 0 0
8.97832 4.51429 4.67774 0 0
9.00518 4.51785 4.69175 0 0
9.03193 4.52146 4.70576 0 0
9.05858 4.52514 4.71977 0 0
9.08519 4.52885 4.71985 0 0
9.11162 4.53263 4.74778 0 0
9.1381 4.53634 4.73394 0 0
9.16436 4.54013 4.76187 0 0
9.19049 4.54394 4.80373 0 0
9.24253 4.55146 4.88744 0 0
9.26871 4.55499 4.85967 0 0
9.29465 4.55857 4.87368 0 0
9.32067 4.56206 4.85984 0 0
9.34643 4.56563 4.90169 0 0
9.37223 4.56908 4.9157 0 0
9.39795 4.57252 4.94363 0 0
9.42363 4.5759 4.97156 0 0
9.44937 4.57915 4.97164 0 0
9.47494 4.58247 5.01349 0 0
9.52629 4.58874 5.01366 0 0
9.62831 4.60104 5.12538 0 0
9.67919 4.60704 5.18124 0 0
9.70438 4.61016 5.26486 0 0
9.80549 4.6222 5.4462 0 0
9.83067 4.62522 5.50198 0 0
5.38553 4.29619 5.76575 0 0
5.41916 4.29773 5.51523 0 0
5.55302 4.30475 4.98656 0 0
5.58595 4.30693 5.07022 0 0
5.65267 4.31075 5.01474 0 0
5.68712 4.31193 4.66676 0 0
5.72026 4.31396 4.69471 0 0
5.78698 4.31763 4.56962 0 0
5.8202 4.31949 4.51404 0 0
5.85333 4.32136 4.45845 0 0
5.88582 4.32356 4.55603 0 0
5.91915 4.32512 4.37512 0 0
5.95178 4.327 4.34739 0 0
5.98437 4.32879 4.27787 0 0
6.01643 4.33076 4.30583 0 0
6.04852 4.33258 4.27809 0 0
6.08049 4.33437 4.23642 0 0
6.11233 4.33615 4.19476 0 0
6.14426 4.33781 4.0974 0 0
6.1758 4.33966 4.08358 0 0
6.20732 4.34148 4.05583 0 0
6.23881 4.34329 4.01417 0 0
6.27015 4.34517 4.00035 0 0
6.30166 4.34689 3.91691 0 0
6.33284 4.34881 3.91701 0 0
6.36386 4.3508 3.94496 0 0
6.39492 4.35273 3.94507 0 0
6.42581 4.35475 3.98694 0 0
6.45708 4.35646 3.9035 0 0
6.48807 4.35834 3.88968 0 0
6.51902 4.3602 3.87586 0 0
6.55001 4.36202 3.84812 0 0
6.58077 4.36399 3.87607 0 0
6.61167 4.36584 3.86225 0 0
6.64248 4.36777 3.87627 0 0
6.67346 4.3696 3.84853 0 0
6.70416 4.37164 3.90433 0 0
6.73506 4.37358 3.91835 0 0
6.76608 4.3755 3.91846 0 0
6.79723 4.37739 3.90464 0 0
6.82845 4.37928 3.89082 0 0
6.85962 4.38131 3.93269 0 0
6.8911 4.38323 3.91888 0 0
6.92259 4.38523 3.94683 0 0
6.95428 4.38722 3.96086 0 0
6.98614 4.38921 3.97489 0 0
7.01827 4.39116 3.96107 0 0
7.0505 4.39318 3.9751 0 0
7.08309 4.39508 3.93344 0 0
7.11552 4.39723 3.98924 0 0
7.14822 4.39933 4.0172 0 0
7.18117 4.40137 4.01731 0 0
7.21416 4.40347 4.04527 0 0
7.24744 4.4055 4.03146 0 0
7.28056 4.40772 4.10119 0 0
7.31404 4.40978 4.1013 0 0
7.34757 4.41187 4.11534 0 0
7.38114 4.41398 4.1433 0 0
7.41483 4.41605 4.15733 0 0
7.44864 4.41809 4.15745 0 0
7.48245 4.42013 4.17148 0 0
7.51628 4.4222 4.18552 0 0
7.55027 4.42415 4.15779 0 0
7.58381 4.4264 4.25537 0 0
7.61772 4.42839 4.24156 0 0
7.65162 4.43034 4.21382 0 0
7.68513 4.43248 4.26963 0 0
7.71854 4.43462 4.32544 0 0
7.7519 4.43668 4.3534 0 0
7.78515 4.43871 4.36743 0 0
7.81844 4.44058 4.31185 0 0
7.85104 4.44275 4.3955 0 0
7.91586 4.44686 4.45141 0 0
7.94801 4.44884 4.4376 0 0
7.97967 4.45092 4.46555 0 0
8.01104 4.45303 4.4935 0 0
8.04212 4.45513 4.50753 0 0
8.07294 4.4572 4.50763 0 0
8.10344 4.45932 4.50773 0 0
8.1335 4.46151 4.54961 0 0
8.16348 4.46358 4.53578 0 0
8.19316 4.46571 4.53588 0 0
8.22254 4.46786 4.5499 0 0
8.25186 4.46991 4.52215 0 0
8.28091 4.472 4.50832 0 0
8.30971 4.47416 4.52234 0 0
8.33843 4.47629 4.50851 0 0
8.3669 4.47855 4.53645 0 0
8.3954 4.48074 4.5087 0 0
8.42367 4.48309 4.52272 0 0
8.45191 4.48552 4.52281 0 0
8.48007 4.48806 4.5229 0 0
8.50808 4.49081 4.55084 0 0
8.53622 4.49358 4.52308 0 0
8.56408 4.49665 4.56495 0 0
8.59214 4.49968 4.53719 0 0
8.61999 4.50293 4.5512 0 0
8.6476 4.50638 4.62091 0 0
8.67546 4.5097 4.60708 0 0
8.70312 4.51316 4.63501 0 0
8.73077 4.51661 4.64903 0 0
8.75825 4.52014 4.69089 0 0
8.78592 4.52349 4.66313 0 0
8.81344 4.52692 4.66321 0 0
8.84085 4.53031 4.6633 0 0
8.86806 4.53381 4.70516 0 0
8.89538 4.53717 4.69132 0 0
8.92248 4.54063 4.71926 0 0
8.94949 4.54413 4.74719 0 0
8.97668 4.54748 4.69158 0 0
9.00344 4.55113 4.73344 0 0
9.03013 4.55485 4.76137 0 0
9.05689 4.55854 4.74753 0 0
9.08369 4.56217 4.69192 0 0
9.11012 4.56603 4.71985 0 0
9.13639 4.56991 4.76171 0 0
9.16273 4.57368 4.76179 0 0
9.18912 4.57735 4.73403 0 0
9.21507 4.58119 4.80373 0 0
9.24101 4.58496 4.85951 0 0
9.26714 4.58851 4.84566 0 0
9.29315 4.59203 4.84575 0 0
9.31878 4.59573 4.9433 0 0
9.34462 4.59918 4.9573 0 0
9.37059 4.60248 4.92954 0 0
9.39637 4.60582 4.94354 0 0
9.4221 4.60911 4.95755 0 0
9.44746 4.61257 5.06902 0 0
9.47337 4.61561 5.01341 0 0
9.49901 4.61874 5.02742 0 0
9.52415 4.62213 5.18066 0 0
9.5499 4.62507 5.1529 0 0
9.6519 4.63701 5.25069 0 0
5.41587 4.33143 5.8354 0 0
5.48385 4.33413 5.20904 0 0
5.58049 4.34194 5.97519 0 0
5.61768 4.34126 4.81961 0 0
5.65106 4.3431 4.76403 0 0
5.68431 4.345 4.73629 0 0
5.7178 4.34673 4.63893 0 0
5.75112 4.34853 4.56942 0 0
5.78419 4.35046 4.55561 0 0
5.81738 4.35225 4.4861 0 0
5.85028 4.35417 4.47229 0 0
5.88323 4.35599 4.4167 0 0
5.91585 4.35794 4.41681 0 0
5.94887 4.35952 4.26376 0 0
5.9809 4.36162 4.34741 0 0
6.01342 4.3633 4.25005 0 0
6.0453 4.3653 4.29193 0 0
6.0773 4.36713 4.26419 0 0
6.10933 4.36886 4.19467 0 0
6.17303 4.37237 4.06957 0 0
6.20474 4.37415 4.01398 0 0
6.23629 4.376 3.98623 0 0
6.26747 4.37805 4.04204 0 0
6.29915 4.37974 3.94467 0 0
6.33036 4.3817 3.9587 0 0
6.36157 4.38361 3.9588 0 0
6.39282 4.38546 3.93106 0 0
6.42392 4.38737 3.93116 0 0
6.4552 4.38912 3.86165 0 0
6.48616 4.39106 3.87568 0 0
6.51702 4.39303 3.90363 0 0
6.54809 4.39483 3.86196 0 0
6.57897 4.39674 3.86206 0 0
6.6098 4.39868 3.87609 0 0
6.64058 4.40067 3.90404 0 0
6.67145 4.40259 3.90414 0 0
6.70235 4.40452 3.90425 0 0
6.73325 4.40647 3.91827 0 0
6.76421 4.40842 3.9323 0 0
6.79529 4.41035 3.9324 0 0
6.82647 4.41227 3.93251 0 0
6.85785 4.41413 3.90476 0 0
6.88922 4.41609 3.91879 0 0
6.92064 4.41812 3.96067 0 0
6.95235 4.42006 3.96078 0 0
6.98424 4.42203 3.96088 0 0
7.01597 4.42424 4.05846 0 0
7.04842 4.4261 4.00287 0 0
7.08084 4.42812 4.00298 0 0
7.1134 4.43019 4.01701 0 0
7.14612 4.43227 4.03104 0 0
7.17911 4.43431 4.01723 0 0
7.21209 4.43643 4.04519 0 0
7.24532 4.43851 4.0453 0 0
7.27848 4.44069 4.1011 0 0
7.31201 4.44272 4.08729 0 0
7.34548 4.44483 4.11525 0 0
7.37914 4.44686 4.11537 0 0
7.41268 4.44903 4.17117 0 0
7.44654 4.45102 4.15736 0 0
7.48052 4.45297 4.1157 0 0
7.51407 4.45524 4.21328 0 0
7.54792 4.45731 4.22732 0 0
7.58185 4.45934 4.21351 0 0
7.61566 4.46144 4.22755 0 0
7.64922 4.46365 4.29728 0 0
7.68294 4.46571 4.29739 0 0
7.71635 4.46789 4.3532 0 0
7.74982 4.46991 4.35331 0 0
7.78327 4.47184 4.31165 0 0
7.81601 4.4741 4.42315 0 0
7.84929 4.47585 4.31187 0 0
7.88148 4.47815 4.45122 0 0
7.91402 4.48005 4.40956 0 0
7.94599 4.48213 4.45144 0 0
7.97768 4.48419 4.47939 0 0
8.00917 4.48619 4.4795 0 0
8.04028 4.48826 4.49352 0 0
8.07101 4.49036 4.52147 0 0
8.1016 4.49238 4.50765 0 0
8.13178 4.49448 4.52168 0 0
8.16168 4.49657 4.5357 0 0
8.19141 4.49859 4.52187 0 0
8.22081 4.50066 4.5359 0 0
8.25009 4.50267 4.52207 0 0
8.27912 4.5047 4.52216 0 0
8.30797 4.50675 4.52226 0 0
8.33657 4.50888 4.5502 0 0
8.36515 4.51095 4.53637 0 0
8.39369 4.51304 4.50862 0 0
8.42193 4.51536 4.53656 0 0
8.45021 4.51768 4.52273 0 0
8.47833 4.52023 4.53675 0 0
8.50643 4.52292 4.53684 0 0
8.53454 4.52576 4.523 0 0
8.56234 4.52894 4.57879 0 0
8.59024 4.53218 4.5928 0 0
8.6184 4.53535 4.52327 0 0
8.67388 4.54237 4.57915 0 0
8.70143 4.54602 4.63493 0 0
8.72909 4.54957 4.64894 0 0
8.75667 4.55314 4.66296 0 0
8.78429 4.55662 4.64912 0 0
8.81176 4.56013 4.66313 0 0
8.83914 4.56363 4.67714 0 0
8.86642 4.56712 4.70508 0 0
8.89379 4.57047 4.67732 0 0
8.9208 4.57401 4.7331 0 0
8.94801 4.57738 4.70534 0 0
8.97492 4.58094 4.73327 0 0
9.00178 4.58456 4.74728 0 0
9.02858 4.58826 4.74737 0 0
9.05539 4.59198 4.7196 0 0
9.0819 4.59588 4.74753 0 0
9.1082 4.59986 4.80331 0 0
9.13473 4.60362 4.77555 0 0
9.16102 4.60745 4.78956 0 0
9.18731 4.61119 4.78964 0 0
9.21341 4.61492 4.81757 0 0
9.23941 4.61864 4.85942 0 0
9.26553 4.62215 4.84558 0 0
9.29125 4.62583 4.92921 0 0
9.31723 4.62925 4.92929 0 0
9.34308 4.63263 4.9433 0 0
9.36896 4.63592 4.94338 0 0
9.39478 4.63918 4.94346 0 0
9.49713 4.65205 5.1248 0 0
9.52265 4.65513 5.16666 0 0
9.57373 4.6611 5.22252 0 0
9.7771 4.68433 5.45988 0 0
5.31544 4.35811 5.84891 0 0
5.38138 4.362 5.70989 0 0
5.48054 4.36788 5.55706 0 0
5.54843 4.37072 5.02817 0 0
5.58171 4.37258 4.97258 0 0
5.6153 4.37424 4.83345 0 0
5.64876 4.37595 4.72217 0 0
5.68179 4.37793 4.73621 0 0
5.71488 4.37985 4.72239 0 0
5.74825 4.38153 4.61111 0 0
5.78122 4.38343 4.5973 0 0
5.81446 4.3851 4.48602 0 0
5.84736 4.38693 4.44435 0 0
5.87994 4.3889 4.47231 0 0
5.91268 4.3907 4.41672 0 0
5.94517 4.39257 4.40291 0 0
6.01015 4.39607 4.26389 0 0
6.04212 4.39802 4.29184 0 0
6.07431 4.39978 4.22233 0 0
6.10646 4.4015 4.13889 0 0
6.13818 4.40346 4.15292 0 0
6.16998 4.40532 4.12518 0 0
6.20184 4.4071 4.05566 0 0
6.2334 4.40902 4.05577 0 0
6.26512 4.41079 3.98625 0 0
6.29645 4.41277 4.01421 0 0
6.32796 4.4146 3.97254 0 0
6.35931 4.41648 3.95872 0 0
6.39065 4.41832 3.93098 0 0
6.42183 4.42022 3.93108 0 0
6.45295 4.42213 3.93119 0 0
6.48441 4.42377 3.8199 0 0
6.51526 4.42578 3.86177 0 0
6.54607 4.4278 3.90365 0 0
6.57709 4.42966 3.8759 0 0
6.60799 4.4316 3.87601 0 0
6.63881 4.43358 3.89003 0 0
6.66964 4.43555 3.90406 0 0
6.70041 4.4376 3.94594 0 0
6.73144 4.43947 3.91819 0 0
6.76253 4.44134 3.89045 0 0
6.79344 4.44335 3.93232 0 0
6.8247 4.44521 3.90458 0 0
6.85596 4.44712 3.90468 0 0
6.88736 4.44904 3.90479 0 0
6.91875 4.45105 3.94666 0 0
6.9505 4.45296 3.93285 0 0
6.98227 4.45499 3.9608 0 0
7.01427 4.457 3.97483 0 0
7.0465 4.45902 3.97494 0 0
7.07891 4.46106 3.97505 0 0
7.11121 4.46331 4.0587 0 0
7.14405 4.46532 4.03096 0 0
7.17689 4.46747 4.05892 0 0
7.20996 4.46955 4.05903 0 0
7.24318 4.47164 4.05914 0 0
7.27652 4.47371 4.05925 0 0
7.30998 4.47576 4.05936 0 0
7.34336 4.47794 4.11517 0 0
7.37697 4.48 4.12921 0 0
7.41071 4.48203 4.12932 0 0
7.44445 4.48409 4.14336 0 0
7.47831 4.48614 4.14347 0 0
7.51204 4.48829 4.18535 0 0
7.54578 4.49047 4.22724 0 0
7.57977 4.4925 4.1995 0 0
7.61365 4.49461 4.19962 0 0
7.64729 4.49681 4.2415 0 0
7.68102 4.49891 4.24161 0 0
7.71473 4.50095 4.21388 0 0
7.74822 4.50302 4.21399 0 0
7.78124 4.50525 4.29764 0 0
7.814 4.50754 4.40915 0 0
7.84737 4.50924 4.28394 0 0
7.88001 4.51127 4.29797 0 0
7.91189 4.51359 4.45125 0 0
7.94404 4.51556 4.45135 0 0
7.97577 4.5176 4.47931 0 0
8.00733 4.51955 4.46549 0 0
8.03851 4.52155 4.46559 0 0
8.06918 4.52369 4.52139 0 0
8.09975 4.52568 4.50757 0 0
8.12994 4.52774 4.52159 0 0
8.16 4.52968 4.49384 0 0
8.18961 4.53173 4.52179 0 0
8.21902 4.53374 4.53581 0 0
8.24831 4.53567 4.52199 0 0
8.2773 4.53767 4.53601 0 0
8.30617 4.53963 4.5361 0 0
8.33497 4.54153 4.50835 0 0
8.36343 4.54361 4.53629 0 0
8.39192 4.54564 4.52246 0 0
8.4202 4.54783 4.53648 0 0
8.44838 4.55016 4.5505 0 0
8.47655 4.55263 4.55059 0 0
8.50471 4.55529 4.53676 0 0
8.53291 4.5581 4.49508 0 0
8.56057 4.56147 4.59263 0 0
8.58848 4.56482 4.60665 0 0
8.6162 4.5684 4.66243 0 0
8.64416 4.57188 4.63467 0 0
8.67186 4.57555 4.66261 0 0
8.69964 4.57919 4.6627 0 0
8.72728 4.58285 4.67671 0 0
8.75488 4.58651 4.69072 0 0
8.78255 4.59005 4.66296 0 0
8.80997 4.59369 4.6909 0 0
8.83743 4.5972 4.69098 0 0
8.86465 4.60078 4.73284 0 0
8.892 4.60418 4.71901 0 0
8.91916 4.60764 4.73302 0 0
8.94633 4.61103 4.71918 0 0
8.97316 4.61464 4.77496 0 0
9.00012 4.61821 4.76112 0 0
9.02693 4.62195 4.76121 0 0
9.05367 4.62577 4.74737 0 0
9.07988 4.62993 4.85884 0 0
9.13306 4.63752 4.78939 0 0
9.15937 4.64135 4.8034 0 0
9.18548 4.64519 4.84525 0 0
9.21168 4.64882 4.84533 0 0
9.23778 4.65244 4.85934 0 0
9.26382 4.65596 4.87335 0 0
9.28965 4.65951 4.92913 0 0
9.31557 4.66291 4.94313 0 0
9.34155 4.66614 4.92929 0 0
9.36727 4.66947 4.97114 0 0
9.39305 4.67267 4.98515 0 0
9.4189 4.67574 4.97131 0 0
9.44419 4.67913 5.11063 0 0
9.46991 4.68214 5.11071 0 0
9.52139 4.68795 5.08303 0 0
9.54666 4.69109 5.19451 0 0
9.5721 4.69406 5.25028 0 0
9.6233 4.69968 5.25045 0 0
9.67421 4.7054 5.30631 0 0
9.6994 4.70841 5.40386 0 0
9.77487 4.7173 5.66866 0 0
5.07584 4.38304 8.63285 0 0
5.44639 4.39825 5.32016 0 0
5.58004 4.40521 4.81933 0 0
5.61309 4.40716 4.80552 0 0
5.64629 4.409 4.74994 0 0
5.67931 4.41092 4.73612 0 0
5.71243 4.41272 4.68054 0 0
5.74564 4.41442 4.58318 0 0
5.77861 4.41623 4.54152 0 0
5.81156 4.41802 4.48593 0 0
5.87718 4.42154 4.37476 0 0
5.94211 4.42528 4.36105 0 0
5.97463 4.42702 4.29154 0 0
6.00682 4.42892 4.29165 0 0
6.03882 4.43089 4.3196 0 0
6.07131 4.43251 4.18047 0 0
6.10348 4.43429 4.11096 0 0
6.13539 4.43621 4.09714 0 0
6.16717 4.43817 4.09724 0 0
6.19899 4.44006 4.0695 0 0
6.23079 4.44192 4.02784 0 0
6.26259 4.44374 3.97225 0 0
6.29412 4.44566 3.97235 0 0
6.32564 4.44755 3.95853 0 0
6.35704 4.44945 3.95864 0 0
6.38848 4.45128 3.93089 0 0
6.41978 4.45316 3.91707 0 0
6.45103 4.45501 3.90325 0 0
6.48215 4.45692 3.90336 0 0
6.51336 4.45874 3.86169 0 0
6.54431 4.46072 3.87572 0 0
6.57521 4.4627 3.88974 0 0
6.60607 4.4647 3.90377 0 0
6.63695 4.46668 3.90387 0 0
6.66774 4.46872 3.93183 0 0
6.69878 4.47058 3.89016 0 0
6.72966 4.47258 3.90418 0 0
6.76064 4.47452 3.90429 0 0
6.79159 4.47651 3.93224 0 0
6.82267 4.47846 3.94627 0 0
6.85397 4.48033 3.93245 0 0
6.88539 4.4822 3.91863 0 0
6.91676 4.4842 3.96051 0 0
6.94843 4.48613 3.96061 0 0
6.98023 4.48812 3.97464 0 0
7.01219 4.49013 3.98867 0 0
7.04425 4.49225 4.03055 0 0
7.0768 4.49423 3.98889 0 0
7.10928 4.49638 4.01684 0 0
7.17484 4.50067 4.04491 0 0
7.2079 4.50278 4.04502 0 0
7.24107 4.50491 4.05905 0 0
7.27439 4.50699 4.05917 0 0
7.30785 4.50906 4.05928 0 0
7.34123 4.51122 4.11509 0 0
7.37483 4.51328 4.12912 0 0
7.40846 4.51537 4.15708 0 0
7.44215 4.51746 4.18504 0 0
7.4762 4.51939 4.12946 0 0
7.50989 4.52158 4.18527 0 0
7.54378 4.5237 4.18538 0 0
7.57753 4.52593 4.22727 0 0
7.61145 4.52805 4.21346 0 0
7.67888 4.53245 4.24153 0 0
7.71267 4.53449 4.19987 0 0
7.74567 4.53692 4.33922 0 0
7.77898 4.53903 4.35326 0 0
7.81219 4.54104 4.33944 0 0
7.84491 4.54321 4.40917 0 0
7.87738 4.54536 4.4789 0 0
7.90994 4.54726 4.45116 0 0
7.94211 4.5492 4.45127 0 0
7.97397 4.55117 4.45138 0 0
8.00546 4.55316 4.4654 0 0
8.03652 4.55523 4.50728 0 0
8.06728 4.55728 4.53523 0 0
8.09783 4.55926 4.53533 0 0
8.12807 4.56126 4.53543 0 0
8.15803 4.56322 4.53553 0 0
8.18785 4.5651 4.50778 0 0
8.21732 4.56702 4.50788 0 0
8.24656 4.56893 4.50798 0 0
8.27553 4.57088 4.53592 0 0
8.30444 4.57273 4.5221 0 0
8.33309 4.57464 4.53612 0 0
8.36167 4.57656 4.53621 0 0
8.39011 4.57852 4.5363 0 0
8.41844 4.5806 4.5364 0 0
8.44664 4.58285 4.55042 0 0
8.4748 4.58527 4.55051 0 0
8.50277 4.58804 4.59237 0 0
8.53092 4.59095 4.56461 0 0
8.55878 4.59428 4.60648 0 0
8.58674 4.59772 4.60657 0 0
8.61466 4.60129 4.60665 0 0
8.64234 4.6051 4.66244 0 0
8.67015 4.60882 4.66253 0 0
8.69787 4.61261 4.67654 0 0
8.72553 4.61639 4.69055 0 0
8.75322 4.62009 4.67671 0 0
8.78071 4.62384 4.70465 0 0
8.80818 4.62752 4.71866 0 0
8.83563 4.63108 4.71875 0 0
8.86302 4.63462 4.71884 0 0
8.89028 4.63814 4.73285 0 0
8.91744 4.64162 4.74686 0 0
8.94467 4.64498 4.7191 0 0
8.97156 4.64854 4.76095 0 0
8.9984 4.65219 4.78889 0 0
9.02521 4.65599 4.78897 0 0
9.05185 4.65995 4.80298 0 0
9.0783 4.66398 4.84483 0 0
9.10494 4.6678 4.80315 0 0
9.13141 4.67162 4.78931 0 0
9.15758 4.67552 4.84508 0 0
9.18379 4.67926 4.85909 0 0
9.20996 4.68289 4.8731 0 0
9.23596 4.6865 4.91495 0 0
9.262 4.68996 4.92896 0 0
9.28788 4.6934 4.97081 0 0
9.31386 4.69668 4.9709 0 0
9.33979 4.69986 4.97098 0 0
9.36534 4.70322 5.06853 0 0
9.39141 4.70613 4.99899 0 0
9.41718 4.70919 5.013 0 0
9.4426 4.71239 5.11055 0 0
9.46834 4.71532 5.11063 0 0
9.49401 4.71823 5.12464 0 0
9.54502 4.72411 5.22227 0 0
9.57067 4.72689 5.22236 0 0
9.64715 4.73535 5.30615 0 0
5.31042 4.42472 6.08545 0 0
5.34377 4.42642 5.91847 0 0
5.44074 4.43371 6.37829 0 0
5.54412 4.43679 5.05585 0 0
5.57381 4.44094 5.98886 0 0
5.644 4.44201 4.73593 0 0
5.67678 4.44402 4.76389 0 0
5.70974 4.44586 4.72222 0 0
5.7425 4.44776 4.72233 0 0
5.77585 4.44926 4.54143 0 0
5.80824 4.4513 4.61116 0 0
5.84085 4.45313 4.59734 0 0
5.87364 4.45481 4.51391 0 0
5.90638 4.45645 4.41655 0 0
5.93857 4.4584 4.45843 0 0
5.97106 4.46013 4.38892 0 0
6.00339 4.46194 4.34726 0 0
6.03565 4.46377 4.30559 0 0
6.0678 4.46566 4.27785 0 0
6.16397 4.47139 4.1807 0 0
6.19629 4.47306 4.04157 0 0
6.22801 4.47508 4.0556 0 0
6.25981 4.47698 4.02786 0 0
6.2916 4.47882 3.98619 0 0
6.32317 4.48073 3.9863 0 0
6.35482 4.48255 3.94463 0 0
6.38625 4.48443 3.94473 0 0
6.41759 4.48632 3.94484 0 0
6.44902 4.48811 3.90317 0 0
6.48016 4.49005 3.9172 0 0
6.51152 4.49183 3.84768 0 0
6.54241 4.49387 3.88956 0 0
6.57333 4.49589 3.90359 0 0
6.60439 4.4978 3.86192 0 0
6.63509 4.49993 3.91772 0 0
6.66607 4.50188 3.88997 0 0
6.69686 4.50394 3.91792 0 0
6.72773 4.50595 3.93195 0 0
6.75884 4.5078 3.89028 0 0
6.78966 4.50987 3.94608 0 0
6.82088 4.51171 3.91834 0 0
6.852 4.51368 3.94629 0 0
6.88344 4.5155 3.91854 0 0
6.91477 4.51748 3.96042 0 0
6.94651 4.51933 3.93268 0 0
6.97823 4.52134 3.96063 0 0
7.01013 4.52339 3.98859 0 0
7.04233 4.52544 3.9887 0 0
7.07461 4.5276 4.01665 0 0
7.10722 4.5297 4.00284 0 0
7.13986 4.5319 4.03079 0 0
7.17286 4.53399 4.00305 0 0
7.20573 4.53626 4.05886 0 0
7.23898 4.53835 4.04505 0 0
7.27231 4.54044 4.04516 0 0
7.3056 4.5426 4.08704 0 0
7.33911 4.54468 4.10108 0 0
7.37271 4.54672 4.11511 0 0
7.40644 4.54874 4.11523 0 0
7.44028 4.55073 4.10141 0 0
7.47388 4.55293 4.17115 0 0
7.50776 4.55503 4.17126 0 0
7.54182 4.55708 4.1296 0 0
7.57556 4.55937 4.17149 0 0
7.60928 4.56169 4.21337 0 0
7.64306 4.56394 4.22741 0 0
7.6765 4.56635 4.31106 0 0
7.71058 4.56825 4.18586 0 0
7.74376 4.57062 4.28344 0 0
7.77718 4.5727 4.26963 0 0
7.81036 4.57477 4.26974 0 0
7.8431 4.57695 4.33947 0 0
7.87586 4.57893 4.33958 0 0
7.90835 4.58088 4.33969 0 0
7.94018 4.58307 4.45118 0 0
7.97204 4.58504 4.46521 0 0
8.00359 4.58697 4.46532 0 0
8.03481 4.58893 4.46542 0 0
8.06554 4.59101 4.5073 0 0
8.09604 4.59301 4.52132 0 0
8.12629 4.59497 4.52143 0 0
8.15627 4.5969 4.52152 0 0
8.18597 4.59881 4.52162 0 0
8.2154 4.60072 4.53565 0 0
8.24462 4.60259 4.54967 0 0
8.27373 4.60439 4.53584 0 0
8.30266 4.60616 4.52201 0 0
8.33133 4.608 4.53603 0 0
8.3599 4.60985 4.53613 0 0
8.38829 4.61177 4.55015 0 0
8.41662 4.61376 4.55024 0 0
8.44486 4.61588 4.55033 0 0
8.47303 4.61824 4.55043 0 0
8.50105 4.62096 4.57837 0 0
8.52906 4.62402 4.59238 0 0
8.55693 4.62746 4.63424 0 0
8.58489 4.63102 4.63433 0 0
8.61282 4.63471 4.63442 0 0
8.64054 4.63862 4.67628 0 0
8.66842 4.64243 4.66244 0 0
8.696 4.64641 4.71823 0 0
8.72379 4.65019 4.69047 0 0
8.75145 4.65401 4.69055 0 0
8.77904 4.6578 4.69064 0 0
8.80646 4.66158 4.71858 0 0
8.83377 4.66534 4.76044 0 0
8.86125 4.66887 4.73268 0 0
8.88846 4.67247 4.76061 0 0
8.91559 4.67601 4.78854 0 0
8.94278 4.67943 4.77471 0 0
8.96984 4.6829 4.77479 0 0
8.99683 4.68643 4.76095 0 0
9.05028 4.69427 4.77505 0 0
9.07677 4.69828 4.80298 0 0
9.10324 4.70221 4.81699 0 0
9.12947 4.70616 4.87276 0 0
9.15562 4.71001 4.92854 0 0
9.18215 4.7135 4.85901 0 0
9.23414 4.7207 4.97056 0 0
9.26042 4.72392 4.91495 0 0
9.28627 4.72729 4.97073 0 0
9.33785 4.73378 5.06836 0 0
9.36408 4.73657 4.97098 0 0
9.38959 4.73979 5.06853 0 0
9.41535 4.74273 5.08254 0 0
9.46663 4.74861 5.15232 0 0
9.51825 4.75405 5.09679 0 0
9.54358 4.75701 5.19434 0 0
9.56887 4.75996 5.29189 0 0
9.59449 4.76267 5.29198 0 0
9.61975 4.76559 5.38953 0 0
9.64537 4.76826 5.37569 0 0
9.67044 4.77128 5.51501 0 0
9.77198 4.78227 5.64065 0 0
9.87345 4.79295 5.68275 0 0
9.89874 4.7956 5.69676 0 0
9.92412 4.79817 5.68292 0 0
5.07121 4.44912 8.60484 0 0
5.17501 4.45115 6.80898 0 0
5.34237 4.45913 5.7513 0 0
5.47566 4.46623 5.23656 0 0
5.50923 4.46782 5.04173 0 0
5.54246 4.46962 4.94437 0 0
5.57504 4.47183 5.02803 0 0
5.67456 4.47702 4.70811 0 0
5.70756 4.47876 4.62467 0 0
5.74018 4.4807 4.6387 0 0
5.77282 4.48255 4.62489 0 0
5.80569 4.4842 4.52753 0 0
5.83825 4.48599 4.49979 0 0
5.87069 4.4878 4.48598 0 0
5.90327 4.48948 4.41646 0 0
5.93569 4.49124 4.3748 0 0
5.96815 4.49295 4.30529 0 0
6.00033 4.49485 4.3054 0 0
6.03279 4.49658 4.20804 0 0
6.06489 4.49856 4.20814 0 0
6.09706 4.50052 4.1804 0 0
6.12942 4.50232 4.08304 0 0
6.16121 4.50449 4.13884 0 0
6.19343 4.50632 4.05541 0 0
6.25731 4.51018 3.99992 0 0
6.28911 4.51212 3.98611 0 0
6.32088 4.51398 3.95836 0 0
6.35254 4.51584 3.94454 0 0
6.38412 4.5177 3.93073 0 0
6.41555 4.51957 3.93083 0 0
6.4469 4.52144 3.93094 0 0
6.47817 4.52335 3.93104 0 0
6.50947 4.52519 3.88937 0 0
6.54054 4.52717 3.88948 0 0
6.5715 4.52922 3.9035 0 0
6.60253 4.5312 3.87576 0 0
6.63298 4.53353 4.00118 0 0
6.66426 4.53533 3.88989 0 0
6.69508 4.53739 3.90391 0 0
6.72588 4.53945 3.93187 0 0
6.75692 4.54136 3.90412 0 0
6.78783 4.54337 3.93207 0 0
6.81882 4.54533 3.96002 0 0
6.85001 4.54722 3.96013 0 0
6.88131 4.54909 3.96023 0 0
6.91287 4.5509 3.93249 0 0
6.94452 4.55275 3.91867 0 0
6.97607 4.55485 3.9884 0 0
7.0081 4.55682 3.97458 0 0
7.04021 4.55892 3.98861 0 0
7.07248 4.5611 4.01657 0 0
7.10494 4.56335 4.04452 0 0
7.13767 4.56553 4.04463 0 0
7.17066 4.56766 4.01689 0 0
7.20362 4.56989 4.04485 0 0
7.23667 4.57213 4.08673 0 0
7.26995 4.57428 4.10077 0 0
7.30344 4.57632 4.08696 0 0
7.33684 4.57845 4.12884 0 0
7.37053 4.58044 4.11503 0 0
7.4042 4.58246 4.12906 0 0
7.43799 4.58448 4.12918 0 0
7.47188 4.58649 4.11537 0 0
7.50557 4.58873 4.17118 0 0
7.53952 4.59088 4.15736 0 0
7.57313 4.59332 4.24102 0 0
7.60706 4.59557 4.22721 0 0
7.64093 4.59783 4.2134 0 0
7.67478 4.60004 4.18566 0 0
7.70839 4.60232 4.1997 0 0
7.74197 4.60448 4.18589 0 0
7.77512 4.60677 4.25562 0 0
7.80803 4.60906 4.33927 0 0
7.84066 4.61134 4.45077 0 0
7.87373 4.61313 4.36734 0 0
7.90598 4.61528 4.45099 0 0
7.93833 4.61713 4.42325 0 0
7.97023 4.61905 4.43728 0 0
8.00178 4.62101 4.45131 0 0
8.03282 4.6231 4.50711 0 0
8.06373 4.62502 4.49329 0 0
8.09438 4.62692 4.46554 0 0
8.12443 4.62899 4.52134 0 0
8.15441 4.63089 4.52144 0 0
8.18418 4.63273 4.50762 0 0
8.21362 4.6346 4.52164 0 0
8.2429 4.6364 4.52174 0 0
8.27191 4.63821 4.53576 0 0
8.30085 4.63993 4.52193 0 0
8.32958 4.6417 4.52203 0 0
8.35806 4.64354 4.54997 0 0
8.38651 4.64537 4.55006 0 0
8.41484 4.64727 4.55016 0 0
8.44304 4.64936 4.56417 0 0
8.4712 4.65162 4.56427 0 0
8.49917 4.65435 4.60613 0 0
8.52714 4.65752 4.63407 0 0
8.5553 4.66088 4.59239 0 0
8.58334 4.66452 4.57855 0 0
8.61093 4.66857 4.67611 0 0
8.63884 4.67244 4.66227 0 0
8.66658 4.67643 4.69021 0 0
8.69425 4.68045 4.71814 0 0
8.72206 4.68432 4.69038 0 0
8.74974 4.6882 4.67655 0 0
8.7772 4.69217 4.7184 0 0
8.80462 4.69604 4.74634 0 0
8.83214 4.69974 4.7325 0 0
8.85942 4.70347 4.76044 0 0
8.88669 4.70711 4.77445 0 0
8.91392 4.71067 4.77453 0 0
8.94107 4.71417 4.77462 0 0
8.96801 4.71777 4.80255 0 0
8.9949 4.72143 4.81656 0 0
9.02176 4.7252 4.80272 0 0
9.04837 4.72917 4.83066 0 0
9.07503 4.73303 4.81682 0 0
9.10135 4.73699 4.8726 0 0
9.12758 4.74088 4.92837 0 0
9.1543 4.7443 4.83099 0 0
9.18035 4.748 4.90069 0 0
9.20633 4.75159 4.9704 0 0
9.23267 4.75479 4.91478 0 0
9.2587 4.75809 4.94271 0 0
9.28464 4.76128 4.97065 0 0
9.31064 4.76434 4.97073 0 0
9.36179 4.77068 5.16583 0 0
9.38796 4.77334 5.08237 0 0
9.43941 4.77902 5.12431 0 0
9.46516 4.78176 5.12439 0 0
9.51634 4.78731 5.19418 0 0
9.54167 4.7902 5.29173 0 0
9.56748 4.79277 5.25004 0 0
9.61856 4.79818 5.29198 0 0
9.64385 4.80101 5.37561 0 0
9.7452 4.81205 5.5848 0 0
9.77061 4.81471 5.5988 0 0
9.82114 4.82016 5.69643 0 0
9.84659 4.82271 5.68259 0 0
9.92265 4.83041 5.68284 0 0
5.30651 4.4909 6.05744 0 0
5.47355 4.49949 5.29217 0 0
5.57272 4.50517 5.09756 0 0
5.60596 4.50686 4.95843 0 0
5.63935 4.5084 4.76361 0 0
5.67196 4.5104 4.77764 0 0
5.7047 4.51224 4.73598 0 0
5.7373 4.51412 4.72216 0 0
5.77033 4.51565 4.56911 0 0
5.80285 4.51745 4.54137 0 0
5.83526 4.51926 4.52755 0 0
5.86756 4.52109 4.52766 0 0
5.90001 4.52278 4.47207 0 0
5.93227 4.52459 4.45826 0 0
5.99694 4.52814 4.361 0 0
6.02958 4.52979 4.22187 0 0
6.06158 4.53191 4.26375 0 0
6.0939 4.53384 4.20816 0 0
6.1261 4.53586 4.18042 0 0
6.15842 4.5378 4.11091 0 0
6.19049 4.53983 4.09709 0 0
6.22256 4.54182 4.06935 0 0
6.25467 4.54371 4.01376 0 0
6.28629 4.54584 4.08349 0 0
6.31832 4.54762 4.01397 0 0
6.35021 4.54939 3.95838 0 0
6.38183 4.55125 3.95849 0 0
6.4136 4.55295 3.88898 0 0
6.44489 4.55491 3.93085 0 0
6.47621 4.55681 3.93096 0 0
6.50754 4.55869 3.90321 0 0
6.5386 4.56072 3.91724 0 0
6.56965 4.56274 3.90342 0 0
6.60056 4.56486 3.91745 0 0
6.63144 4.56696 3.91755 0 0
6.66227 4.56908 3.93158 0 0
6.69313 4.57115 3.93168 0 0
6.72411 4.57311 3.90393 0 0
6.75504 4.5751 3.90404 0 0
6.78603 4.57705 3.90414 0 0
6.81693 4.57906 3.94602 0 0
6.84814 4.5809 3.9322 0 0
6.87933 4.58281 3.96015 0 0
6.91079 4.58463 3.94633 0 0
6.94237 4.5865 3.94643 0 0
6.97423 4.58836 3.91869 0 0
7.00602 4.59045 3.96057 0 0
7.03807 4.5926 3.98853 0 0
7.07048 4.59475 3.97471 0 0
7.10303 4.59696 3.97482 0 0
7.13561 4.59929 4.0167 0 0
7.1685 4.60153 4.01681 0 0
7.20145 4.6038 4.04477 0 0
7.23464 4.60597 4.04488 0 0
7.26806 4.60803 4.01714 0 0
7.3013 4.61026 4.07295 0 0
7.33475 4.61236 4.10091 0 0
7.36848 4.61431 4.07317 0 0
7.4021 4.61636 4.10113 0 0
7.43588 4.61835 4.10124 0 0
7.46971 4.62039 4.10136 0 0
7.50355 4.62254 4.11539 0 0
7.5375 4.62473 4.10158 0 0
7.57122 4.62718 4.15739 0 0
7.6051 4.62953 4.1575 0 0
7.63894 4.63188 4.15762 0 0
7.67266 4.63423 4.17165 0 0
7.70599 4.63675 4.26923 0 0
7.73973 4.63886 4.21365 0 0
7.77289 4.64119 4.28338 0 0
7.80647 4.64308 4.18602 0 0
7.83891 4.64551 4.35322 0 0
7.87188 4.6474 4.31156 0 0
7.9043 4.64944 4.35344 0 0
7.93636 4.6515 4.42317 0 0
7.96844 4.65331 4.39542 0 0
7.99988 4.65534 4.45123 0 0
8.03102 4.65735 4.47918 0 0
8.0619 4.65932 4.47928 0 0
8.09245 4.66128 4.47938 0 0
8.12269 4.66319 4.47948 0 0
8.18222 4.66706 4.53538 0 0
8.21187 4.66877 4.4937 0 0
8.24115 4.67052 4.4938 0 0
8.27013 4.67232 4.52175 0 0
8.29899 4.67408 4.53577 0 0
8.32786 4.67571 4.49409 0 0
8.35631 4.67756 4.53596 0 0
8.38477 4.67935 4.53605 0 0
8.41305 4.68126 4.55007 0 0
8.44119 4.68333 4.57801 0 0
8.46942 4.68553 4.56418 0 0
8.49757 4.68807 4.55035 0 0
8.5255 4.69136 4.59221 0 0
8.55344 4.69496 4.62015 0 0
8.58131 4.69877 4.64809 0 0
8.6092 4.70268 4.6621 0 0
8.63709 4.70665 4.66219 0 0
8.66486 4.71069 4.6762 0 0
8.69258 4.71474 4.69021 0 0
8.72021 4.71882 4.71815 0 0
8.74784 4.72282 4.71823 0 0
8.77534 4.72683 4.74617 0 0
8.80282 4.73075 4.76018 0 0
8.83023 4.73462 4.77419 0 0
8.85761 4.73838 4.77427 0 0
8.88498 4.74204 4.76044 0 0
8.91216 4.74571 4.77445 0 0
8.9393 4.74931 4.77453 0 0
8.9663 4.75296 4.78854 0 0
8.99319 4.75666 4.80255 0 0
9.01987 4.76052 4.84441 0 0
9.04644 4.76443 4.88627 0 0
9.0732 4.76813 4.84458 0 0
9.09955 4.772 4.90036 0 0
9.12629 4.77545 4.8169 0 0
9.15228 4.77924 4.92837 0 0
9.17834 4.78282 4.99808 0 0
9.20481 4.78597 4.92854 0 0
9.23099 4.78917 4.92862 0 0
9.30901 4.7983 4.97065 0 0
9.33458 4.80139 5.08212 0 0
9.36049 4.80418 5.0822 0 0
9.38635 4.8069 5.08229 0 0
9.43797 4.81227 5.08246 0 0
9.46334 4.81516 5.19393 0 0
9.48913 4.81773 5.18009 0 0
9.51453 4.82053 5.26372 0 0
9.54021 4.82314 5.2638 0 0
9.59106 4.82861 5.38928 0 0
9.61663 4.83124 5.40329 0 0
9.64173 4.83417 5.54261 0 0
9.66738 4.8367 5.51485 0 0
9.69278 4.8394 5.5567 0 0
9.79422 4.85006 5.69627 0 0
9.81958 4.85265 5.71028 0 0
9.87032 4.85775 5.72437 0 0
9.89573 4.86022 5.71053 0 0
5.3386 4.52541 5.72329 0 0
5.43651 4.53216 5.9464 0 0
5.4723 4.53231 5.11108 0 0
5.50537 4.53421 5.04156 0 0
5.63689 4.54187 4.83314 0 0
5.66989 4.54358 4.70794 0 0
5.70253 4.54543 4.66627 0 0
5.73488 4.54743 4.69423 0 0
5.76774 4.54899 4.5551 0 0
5.80006 4.55085 4.55521 0 0
5.83257 4.55253 4.48569 0 0
5.86474 4.55437 4.49973 0 0
5.89715 4.55603 4.43021 0 0
5.92934 4.55782 4.4164 0 0
5.96074 4.56016 4.62536 0 0
5.99424 4.56119 4.2356 0 0
6.02645 4.56315 4.22179 0 0
6.09087 4.5673 4.20808 0 0
6.12325 4.56932 4.15249 0 0
6.15561 4.57134 4.0969 0 0
6.18793 4.57334 4.04131 0 0
6.21995 4.57547 4.05534 0 0
6.25221 4.57735 3.98583 0 0
6.28421 4.57932 3.97201 0 0
6.31614 4.58123 3.95819 0 0
6.34784 4.58318 3.98615 0 0
6.37975 4.58492 3.93056 0 0
6.41137 4.58676 3.93066 0 0
6.44302 4.5885 3.889 0 0
6.47437 4.59042 3.90302 0 0
6.50559 4.5924 3.91705 0 0
6.53668 4.59446 3.93108 0 0
6.56776 4.59653 3.91726 0 0
6.59881 4.5986 3.88951 0 0
6.62956 4.60085 3.93139 0 0
6.66042 4.60298 3.93149 0 0
6.69127 4.60508 3.93159 0 0
6.72224 4.60707 3.90385 0 0
6.75304 4.60915 3.9318 0 0
6.78391 4.61118 3.95975 0 0
6.81499 4.61305 3.94593 0 0
6.84612 4.61492 3.94603 0 0
6.87733 4.61679 3.96006 0 0
6.9088 4.61856 3.93232 0 0
6.9402 4.6205 3.9742 0 0
6.97196 4.62235 3.96038 0 0
7.00389 4.62435 3.96049 0 0
7.03588 4.62657 4.00236 0 0
7.06823 4.6288 4.00247 0 0
7.10068 4.63113 4.03043 0 0
7.13344 4.63339 4.01661 0 0
7.16618 4.63576 4.05849 0 0
7.19938 4.63791 4.01683 0 0
7.23236 4.64024 4.07264 0 0
7.26563 4.64242 4.08667 0 0
7.29906 4.64452 4.08678 0 0
7.33249 4.64663 4.11474 0 0
7.36622 4.64859 4.08701 0 0
7.39983 4.65064 4.11497 0 0
7.43351 4.65269 4.14293 0 0
7.46744 4.65463 4.11519 0 0
7.50112 4.65688 4.171 0 0
7.53508 4.65912 4.15719 0 0
7.56894 4.66155 4.17123 0 0
7.60264 4.66408 4.22704 0 0
7.63679 4.6663 4.14361 0 0
7.67042 4.66877 4.18549 0 0
7.7038 4.67129 4.26915 0 0
7.73736 4.67356 4.26926 0 0
7.77064 4.67586 4.31114 0 0
7.80389 4.67799 4.31125 0 0
7.83679 4.68016 4.35313 0 0
7.86939 4.68233 4.42286 0 0
7.902 4.68427 4.42297 0 0
7.93417 4.68626 4.46485 0 0
7.96615 4.68816 4.47888 0 0
7.99806 4.68987 4.40937 0 0
8.02902 4.69201 4.49302 0 0
8.05989 4.69398 4.49312 0 0
8.09041 4.69595 4.50714 0 0
8.12062 4.69789 4.52117 0 0
8.15067 4.69972 4.50735 0 0
8.18037 4.70156 4.52137 0 0
8.20994 4.70331 4.50754 0 0
8.23919 4.70508 4.52156 0 0
8.26828 4.7068 4.52166 0 0
8.29709 4.70857 4.54961 0 0
8.32589 4.71025 4.53578 0 0
8.35439 4.71205 4.56372 0 0
8.383 4.71375 4.52205 0 0
8.41116 4.71578 4.57784 0 0
8.43937 4.71786 4.59185 0 0
8.46764 4.72007 4.5641 0 0
8.4956 4.72282 4.60596 0 0
8.52363 4.72599 4.61998 0 0
8.55152 4.7296 4.66184 0 0
8.57955 4.73332 4.648 0 0
8.60738 4.73728 4.67594 0 0
8.63521 4.74131 4.68995 0 0
8.66294 4.74541 4.71789 0 0
8.69067 4.74952 4.7319 0 0
8.71832 4.75363 4.74591 0 0
8.74602 4.75765 4.73207 0 0
8.77347 4.76177 4.77393 0 0
8.80123 4.7656 4.7044 0 0
8.82845 4.76967 4.7741 0 0
8.85583 4.77352 4.77419 0 0
8.88309 4.77735 4.7882 0 0
8.91023 4.78115 4.81613 0 0
8.93721 4.78494 4.85799 0 0
8.9643 4.78859 4.84415 0 0
8.99135 4.79221 4.81639 0 0
9.01799 4.79607 4.87217 0 0
9.04487 4.7997 4.83048 0 0
9.07125 4.80355 4.90019 0 0
9.09762 4.80729 4.95597 0 0
9.12424 4.8107 4.91428 0 0
9.15049 4.81421 4.95613 0 0
9.17665 4.81758 4.99799 0 0
9.2029 4.82075 4.99807 0 0
