3.58868 8.16048 5.62093 0 0
3.66747 8.13782 4.42309 0 0
3.6956 8.13837 4.31146 0 0
3.72635 8.15083 4.61737 0 0
3.75724 8.16405 4.95112 0 0
3.78123 8.14607 4.19926 0 0
3.80955 8.14802 4.1433 0 0
3.83748 8.14876 4.0456 0 0
3.86582 8.15189 4.0314 0 0
3.89377 8.15382 3.97544 0 0
3.94934 8.15892 3.9053 0 0
3.98541 8.20087 5.24115 0 0
4.00342 8.16175 3.75164 0 0
4.03008 8.16303 3.66786 0 0
4.05717 8.16713 3.6815 0 0
4.08384 8.17007 3.65339 0 0
4.11006 8.17145 3.5696 0 0
4.13658 8.17486 3.55541 0 0
4.16267 8.17672 3.48554 0 0
4.18886 8.17943 3.4435 0 0
4.21484 8.18134 3.37364 0 0
4.24107 8.18452 3.34552 0 0
4.2939 8.19255 3.34496 0 0
4.32011 8.19541 3.30292 0 0
4.34654 8.1991 3.28871 0 0
4.37299 8.20238 3.26059 0 0
4.39984 8.20727 3.28814 0 0
4.42621 8.20934 3.21827 0 0
4.45302 8.21298 3.20406 0 0
4.48004 8.21697 3.20378 0 0
4.5071 8.22052 3.18958 0 0
4.53433 8.22406 3.17537 0 0
4.56172 8.22759 3.16117 0 0
4.58939 8.23153 3.16088 0 0
4.61716 8.23508 3.14667 0 0
4.64531 8.23946 3.1603 0 0
4.6735 8.24306 3.14609 0 0
4.70207 8.2475 3.15971 0 0
4.73068 8.25117 3.1455 0 0
4.75939 8.25448 3.11736 0 0
4.78868 8.25942 3.14489 0 0
4.81806 8.264 3.15851 0 0
4.84747 8.26781 3.14428 0 0
4.87709 8.27166 3.13005 0 0
4.90732 8.27754 3.18541 0 0
4.93723 8.28105 3.15726 0 0
4.96766 8.28619 3.18479 0 0
4.9981 8.29055 3.18447 0 0
5.02863 8.29455 3.17023 0 0
5.0596 8.29974 3.19775 0 0
5.09057 8.30416 3.19742 0 0
5.12178 8.30898 3.21102 0 0
5.15301 8.313 3.19678 0 0
5.18448 8.31741 3.19645 0 0
5.21629 8.32263 3.22396 0 0
5.24818 8.3274 3.23755 0 0
5.28024 8.33216 3.25114 0 0
5.31247 8.33689 3.26473 0 0
5.34478 8.34116 3.26441 0 0
5.37735 8.34576 3.278 0 0
5.41008 8.35033 3.29159 0 0
5.44279 8.354 3.27735 0 0
5.47574 8.35801 3.27703 0 0
5.50919 8.36353 3.33238 0 0
5.54239 8.36739 3.33206 0 0
5.57587 8.37197 3.35958 0 0
5.60915 8.37528 3.34534 0 0
5.64265 8.37933 3.35894 0 0
5.67616 8.38332 3.37255 0 0
5.70992 8.38846 3.42791 0 0
5.74327 8.39195 3.4276 0 0
5.77654 8.39538 3.42729 0 0
5.80997 8.39997 3.46874 0 0
5.84315 8.40411 3.49627 0 0
5.87615 8.4082 3.5238 0 0
5.90921 8.41344 3.59309 0 0
5.94151 8.41622 3.57888 0 0
5.97384 8.42013 3.60642 0 0
6.00567 8.42275 3.59222 0 0
6.03743 8.4261 3.60585 0 0
6.06889 8.42897 3.60557 0 0
6.10024 8.43217 3.61921 0 0
6.13146 8.43528 3.63285 0 0
6.16251 8.43832 3.6465 0 0
6.19366 8.44211 3.68799 0 0
6.22457 8.44502 3.70164 0 0
6.2556 8.44868 3.74313 0 0
6.28624 8.45067 3.72895 0 0
6.31718 8.45378 3.75652 0 0
6.34814 8.45682 3.7841 0 0
6.37887 8.45857 3.76993 0 0
6.40993 8.4614 3.79751 0 0
6.44107 8.4641 3.82509 0 0
6.47239 8.46707 3.8666 0 0
6.50353 8.4687 3.86636 0 0
6.53504 8.47139 3.90787 0 0
6.56602 8.47116 3.85196 0 0
6.59782 8.47403 3.9074 0 0
6.62952 8.47602 3.935 0 0
6.66116 8.47714 3.93477 0 0
6.69289 8.4782 3.93454 0 0
6.72465 8.47883 3.92039 0 0
6.75678 8.48065 3.948 0 0
6.78894 8.48206 3.96168 0 0
6.82159 8.48506 4.03104 0 0
6.85367 8.48488 3.98906 0 0
6.88636 8.48671 4.01666 0 0
6.91887 8.48697 3.98858 0 0
6.95193 8.48885 4.01618 0 0
6.9853 8.49117 4.05769 0 0
7.01858 8.49231 4.05745 0 0
7.05204 8.49348 4.05721 0 0
7.086 8.49625 4.11263 0 0
7.11951 8.49662 4.08455 0 0
7.15385 8.50056 4.18173 0 0
7.18775 8.50249 4.20932 0 0
7.22103 8.50197 4.15341 0 0
7.255 8.50499 4.22276 0 0
7.28843 8.50635 4.23644 0 0
7.32166 8.50762 4.25012 0 0
7.35462 8.50884 4.26381 0 0
7.38754 8.51118 4.31925 0 0
7.45174 8.51287 4.33273 0 0
7.48339 8.51424 4.36035 0 0
7.51458 8.51515 4.37406 0 0
7.54531 8.51565 4.37385 0 0
7.57603 8.51768 4.42932 0 0
7.60573 8.51648 4.37344 0 0
7.63627 8.52042 4.49851 0 0
7.66596 8.52152 4.52615 0 0
7.69569 8.52379 4.59555 0 0
7.72454 8.52283 4.5536 0 0
7.75415 8.52582 4.65084 0 0
7.78295 8.52559 4.63674 0 0
7.81237 8.52853 4.73398 0 0
7.84115 8.52867 4.73379 0 0
7.87047 8.5312 4.81711 0 0
7.89937 8.53172 4.83085 0 0
7.92834 8.53226 4.84458 0 0
7.95745 8.53321 4.87223 0 0
7.98693 8.53539 4.94163 0 0
8.0158 8.5344 4.89968 0 0
8.04486 8.53383 4.87166 0 0
8.07463 8.53609 4.94106 0 0
8.1042 8.53717 4.9687 0 0
8.16201 8.5326 4.78737 0 0
8.19143 8.53256 4.77326 0 0
8.22096 8.5329 4.77306 0 0
8.25009 8.53167 4.71719 0 0
8.27885 8.52887 4.60565 0 0
8.30833 8.52967 4.61937 0 0
8.36581 8.52537 4.43804 0 0
8.3941 8.52186 4.29867 0 0
8.42414 8.52678 4.45156 0 0
8.453 8.52695 4.43745 0 0
8.48112 8.52438 4.3259 0 0
8.50983 8.52505 4.3257 0 0
8.53858 8.52654 4.35334 0 0
8.56677 8.52607 4.31138 0 0
8.59473 8.5252 4.25551 0 0
8.62309 8.52672 4.28315 0 0
8.65065 8.52501 4.19945 0 0
8.67849 8.52526 4.18533 0 0
8.70608 8.52465 4.14339 0 0
8.73365 8.52433 4.11536 0 0
8.78883 8.52502 4.11499 0 0
8.81576 8.52275 4.03131 0 0
8.84297 8.52195 4.0033 0 0
8.87036 8.52217 4.01705 0 0
8.89753 8.52141 4.00297 0 0
8.92463 8.52047 3.9889 0 0
8.9515 8.51853 3.94699 0 0
8.97849 8.51719 3.93293 0 0
9.00537 8.51524 3.90496 0 0
9.0321 8.51269 3.86307 0 0
9.05934 8.51234 3.9047 0 0
9.08609 8.50982 3.87674 0 0
9.11298 8.50792 3.87663 0 0
9.13963 8.50507 3.84868 0 0
9.16634 8.50247 3.83466 0 0
9.19299 8.49974 3.82064 0 0
9.21985 8.49811 3.84837 0 0
9.24651 8.49556 3.84828 0 0
9.27309 8.49297 3.84819 0 0
9.29972 8.49074 3.86201 0 0
9.32612 8.48765 3.848 0 0
9.35282 8.48619 3.88967 0 0
9.37894 8.48233 3.84782 0 0
9.40552 8.48095 3.88949 0 0
9.43203 8.47963 3.93115 0 0
9.45788 8.47561 3.87538 0 0
9.48506 8.47809 4.0423 0 0
9.53731 8.47468 4.06992 0 0
3.28778 8.18133 7.15453 0 0
3.31612 8.19036 7.27947 0 0
3.63958 8.16882 4.58954 0 0
3.69536 8.16754 4.28276 0 0
3.75293 8.1744 4.26827 0 0
3.80921 8.17634 4.08677 0 0
3.8382 8.18188 4.15608 0 0
3.86538 8.17986 3.96095 0 0
3.89356 8.183 3.94675 0 0
3.92188 8.18779 3.98822 0 0
3.94859 8.1862 3.80701 0 0
3.9763 8.19026 3.82065 0 0
4.00313 8.19156 3.73686 0 0
4.03025 8.19531 3.73658 0 0
4.05721 8.19911 3.7363 0 0
4.08318 8.19934 3.61076 0 0
4.10957 8.20203 3.56873 0 0
4.13589 8.20517 3.54061 0 0
4.16196 8.20752 3.48466 0 0
4.18796 8.20995 3.4287 0 0
4.21416 8.21358 3.41451 0 0
4.24042 8.21765 3.41422 0 0
4.29254 8.22389 3.34406 0 0
4.31844 8.22603 3.27419 0 0
4.34483 8.23019 3.2739 0 0
4.37121 8.23395 3.2597 0 0
4.39752 8.2369 3.21766 0 0
4.42438 8.24181 3.24521 0 0
4.45101 8.24509 3.21709 0 0
4.47768 8.24792 3.17505 0 0
4.50443 8.25033 3.11909 0 0
4.53203 8.25589 3.17447 0 0
4.55948 8.25984 3.17419 0 0
4.58703 8.26338 3.15998 0 0
4.61496 8.26774 3.17361 0 0
4.64292 8.2713 3.1594 0 0
4.6711 8.27488 3.14519 0 0
4.69968 8.27929 3.15881 0 0
4.72836 8.28332 3.15852 0 0
4.75716 8.28699 3.1443 0 0
4.78645 8.29187 3.17184 0 0
4.81576 8.296 3.17153 0 0
4.84527 8.30017 3.17123 0 0
4.87506 8.30476 3.18484 0 0
4.90486 8.30859 3.17061 0 0
4.93513 8.31366 3.19813 0 0
4.9654 8.31795 3.19782 0 0
4.99567 8.32146 3.16967 0 0
5.0263 8.32581 3.16935 0 0
5.05736 8.33135 3.21078 0 0
5.08815 8.33493 3.18263 0 0
5.11946 8.34012 3.21014 0 0
5.15085 8.3449 3.22373 0 0
5.18225 8.3489 3.20949 0 0
5.21405 8.35408 3.237 0 0
5.24586 8.35846 3.23668 0 0
5.2779 8.36321 3.25027 0 0
5.31013 8.36793 3.26386 0 0
5.34251 8.37262 3.27745 0 0
5.37488 8.37646 3.26321 0 0
5.40768 8.38145 3.29072 0 0
5.44063 8.38638 3.31823 0 0
5.47348 8.39006 3.30398 0 0
5.50664 8.39448 3.31758 0 0
5.54008 8.39964 3.35901 0 0
5.57309 8.40234 3.31693 0 0
5.60652 8.40659 3.33053 0 0
5.64009 8.4112 3.35805 0 0
5.67359 8.41536 3.37164 0 0
5.70698 8.41906 3.37133 0 0
5.74051 8.42354 3.39885 0 0
5.77396 8.42796 3.42637 0 0
5.8073 8.43235 3.45389 0 0
5.84068 8.43748 3.50926 0 0
5.87352 8.44093 3.50895 0 0
5.90634 8.44513 3.53648 0 0
5.93894 8.44922 3.56402 0 0
5.97112 8.4524 3.56372 0 0
6.00312 8.45587 3.57735 0 0
6.03499 8.45962 3.6049 0 0
6.06628 8.46168 3.57679 0 0
6.09827 8.46763 3.68786 0 0
6.12921 8.46952 3.65975 0 0
6.1601 8.47173 3.64556 0 0
6.19125 8.47547 3.68704 0 0
6.22215 8.47836 3.7007 0 0
6.25327 8.4824 3.7561 0 0
6.28367 8.48318 3.70017 0 0
6.31485 8.48748 3.7695 0 0
6.34571 8.49011 3.78316 0 0
6.37659 8.49265 3.79682 0 0
6.40761 8.49546 3.82441 0 0
6.43844 8.49691 3.81024 0 0
6.46995 8.50101 3.8935 0 0
6.50101 8.50253 3.89326 0 0
6.53215 8.50389 3.89303 0 0
6.56346 8.5055 3.90671 0 0
6.59477 8.5066 3.90649 0 0
6.62644 8.50879 3.94801 0 0
6.65801 8.51014 3.96171 0 0
6.68958 8.51102 3.96148 0 0
6.72134 8.51226 3.97517 0 0
6.7533 8.5139 4.00279 0 0
6.78509 8.51433 3.98864 0 0
6.81719 8.51555 4.00234 0 0
6.8491 8.5152 3.96035 0 0
6.88187 8.51805 4.02972 0 0
6.91449 8.51934 4.0434 0 0
6.94735 8.52066 4.05709 0 0
6.98044 8.52203 4.07077 0 0
7.01395 8.52421 4.11229 0 0
7.04732 8.52484 4.09813 0 0
7.08113 8.52669 4.12572 0 0
7.11532 8.52973 4.19507 0 0
7.14903 8.53034 4.18091 0 0
7.18263 8.53055 4.15283 0 0
7.21671 8.53309 4.20826 0 0
7.2504 8.53437 4.22194 0 0
7.28392 8.53561 4.23563 0 0
7.31742 8.53759 4.27715 0 0
7.35047 8.53869 4.29084 0 0
7.3834 8.54052 4.33237 0 0
7.41563 8.54071 4.31823 0 0
7.4474 8.54047 4.29017 0 0
7.4794 8.54299 4.35955 0 0
7.51063 8.54389 4.37326 0 0
7.54131 8.54397 4.35913 0 0
7.5725 8.54801 4.48419 0 0
7.60256 8.54844 4.48399 0 0
7.63251 8.54962 4.51162 0 0
7.66237 8.55157 4.5671 0 0
7.69176 8.55227 4.58083 0 0
7.72107 8.55334 4.60847 0 0
7.7504 8.55517 4.66395 0 0
7.77998 8.55856 4.77511 0 0
7.80863 8.55795 4.74709 0 0
7.83749 8.55849 4.76082 0 0
7.86662 8.56025 4.8163 0 0
7.89542 8.56039 4.81612 0 0
7.92453 8.56174 4.85769 0 0
7.95337 8.5615 4.84358 0 0
7.98266 8.56289 4.88515 0 0
8.0118 8.5631 4.88496 0 0
8.0414 8.56495 4.94044 0 0
8.07065 8.56483 4.92633 0 0
8.10016 8.56551 4.94005 0 0
8.12902 8.56302 4.84243 0 0
8.1579 8.56056 4.74481 0 0
8.18753 8.56128 4.75853 0 0
8.21716 8.56203 4.77225 0 0
8.24623 8.56039 4.70246 0 0
8.275 8.55757 4.59092 0 0
8.30442 8.55797 4.59073 0 0
8.33387 8.55878 4.60445 0 0
8.36201 8.55401 4.42332 0 0
8.39136 8.55529 4.45095 0 0
8.42028 8.55499 4.42292 0 0
8.44942 8.55636 4.45056 0 0
8.47729 8.55259 4.29726 0 0
8.50602 8.55327 4.29706 0 0
8.5347 8.55441 4.31077 0 0
8.56314 8.55517 4.31057 0 0
8.59166 8.55672 4.33821 0 0
8.61932 8.55508 4.2545 0 0
8.64731 8.55543 4.24038 0 0
8.6751 8.55529 4.21235 0 0
8.70252 8.55392 4.14257 0 0
8.73025 8.55445 4.14238 0 0
8.75764 8.55367 4.10044 0 0
8.78535 8.55477 4.12809 0 0
8.81239 8.55291 4.05832 0 0
8.83897 8.54931 3.93289 0 0
8.86673 8.55113 4.00231 0 0
8.89398 8.55077 4.00215 0 0
8.92099 8.54942 3.97416 0 0
8.94796 8.54788 3.94617 0 0
8.97496 8.5465 3.93211 0 0
9.00178 8.54413 3.89022 0 0
9.02888 8.54313 3.90401 0 0
9.05569 8.54073 3.87605 0 0
9.08245 8.53814 3.84809 0 0
9.10935 8.53618 3.84798 0 0
9.1363 8.53444 3.86179 0 0
9.1631 8.53216 3.86169 0 0
9.18961 8.52854 3.81983 0 0
9.21642 8.52641 3.83365 0 0
9.24317 8.52416 3.84748 0 0
9.2697 8.52106 3.83347 0 0
9.29627 8.5183 3.83338 0 0
9.32287 8.5159 3.84721 0 0
9.34951 8.51391 3.87496 0 0
9.37573 8.51036 3.84704 0 0
9.40232 8.50886 3.8887 0 0
9.50803 8.504 4.05534 0 0
3.66772 8.19967 4.49097 0 0
3.75292 8.20421 4.26742 0 0
3.78179 8.20819 4.28105 0 0
3.8095 8.20735 4.12767 0 0
3.83796 8.2105 4.11347 0 0
3.89415 8.21569 4.04332 0 0
3.92165 8.2169 3.95953 0 0
3.94954 8.22097 3.97317 0 0
3.97606 8.21988 3.80587 0 0
4.00284 8.22126 3.72208 0 0
4.02967 8.2239 3.68004 0 0
4.0569 8.22937 3.73544 0 0
4.08246 8.2281 3.55422 0 0
4.10935 8.23368 3.60961 0 0
4.1355 8.23652 3.56757 0 0
4.16127 8.23819 3.48378 0 0
4.18758 8.24269 3.49742 0 0
4.21322 8.24445 3.41363 0 0
4.23934 8.24863 3.41334 0 0
4.26556 8.25325 3.42697 0 0
4.29126 8.25546 3.3571 0 0
4.31719 8.25848 3.31506 0 0
4.34318 8.26152 3.27301 0 0
4.36951 8.26575 3.27273 0 0
4.39587 8.26954 3.25852 0 0
4.42199 8.2717 3.18864 0 0
4.44879 8.27622 3.20228 0 0
4.47564 8.2803 3.20199 0 0
4.50267 8.28433 3.2017 0 0
4.52979 8.28794 3.1875 0 0
4.55712 8.2915 3.17329 0 0
4.58455 8.29466 3.14517 0 0
4.61255 8.2994 3.17272 0 0
4.64051 8.30295 3.15851 0 0
4.66886 8.30731 3.17213 0 0
4.69734 8.31128 3.17184 0 0
4.72593 8.31487 3.15763 0 0
4.75493 8.31929 3.17125 0 0
4.78396 8.32295 3.15703 0 0
4.81336 8.32743 3.17065 0 0
4.84297 8.33194 3.18426 0 0
4.87243 8.3349 3.1422 0 0
4.90242 8.33946 3.15581 0 0
4.93278 8.34487 3.19725 0 0
4.96306 8.34911 3.19694 0 0
4.99333 8.35259 3.16879 0 0
5.02415 8.35767 3.19631 0 0
5.05495 8.36199 3.19599 0 0
5.08602 8.36671 3.20959 0 0
5.11698 8.37027 3.18143 0 0
5.14855 8.37583 3.22286 0 0
5.18002 8.38019 3.22254 0 0
5.21173 8.38495 3.23613 0 0
5.24318 8.38771 3.18013 0 0
5.27567 8.39445 3.26332 0 0
5.30761 8.39797 3.23515 0 0
5.34006 8.40308 3.26266 0 0
5.3725 8.40734 3.26233 0 0
5.4051 8.41157 3.26201 0 0
5.43812 8.41697 3.30343 0 0
5.47092 8.42073 3.28919 0 0
5.50423 8.42603 3.33062 0 0
5.53738 8.43009 3.33029 0 0
5.57072 8.43451 3.34388 0 0
5.60394 8.43809 3.32964 0 0
5.63759 8.44324 3.37107 0 0
5.67081 8.44635 3.34291 0 0
5.70436 8.45104 3.37043 0 0
5.73771 8.45487 3.37011 0 0
5.77126 8.45989 3.41154 0 0
5.80487 8.46566 3.48081 0 0
5.83773 8.46857 3.45266 0 0
5.87096 8.4738 3.50802 0 0
5.90354 8.47693 3.4938 0 0
5.93635 8.48195 3.54917 0 0
5.96836 8.48441 3.52103 0 0
6.00048 8.48831 3.54858 0 0
6.03225 8.49167 3.56221 0 0
6.06381 8.49491 3.57585 0 0
6.09509 8.49763 3.57557 0 0
6.12638 8.50106 3.60314 0 0
6.15746 8.50403 3.61679 0 0
6.18844 8.50693 3.63044 0 0
6.21969 8.51138 3.69976 0 0
6.25056 8.5142 3.71342 0 0
6.28147 8.51736 3.74099 0 0
6.31239 8.52047 3.76857 0 0
6.34305 8.52229 3.75439 0 0
6.37419 8.52602 3.80981 0 0
6.405 8.52801 3.80956 0 0
6.4357 8.52904 3.78147 0 0
6.46732 8.53388 3.89258 0 0
6.49823 8.5349 3.87842 0 0
6.52946 8.53692 3.90603 0 0
6.56085 8.53918 3.94755 0 0
6.59196 8.53969 3.93341 0 0
6.62306 8.53972 3.90536 0 0
6.65484 8.54248 3.97473 0 0
6.68618 8.54279 3.96059 0 0
6.71795 8.54466 4.00213 0 0
6.74981 8.54653 4.04366 0 0
6.78161 8.54759 4.05736 0 0
6.81318 8.54705 4.01539 0 0
6.84532 8.54853 4.043 0 0
6.87756 8.54963 4.0567 0 0
6.91028 8.55196 4.11214 0 0
6.94273 8.55194 4.08408 0 0
6.97573 8.55315 4.09777 0 0
7.00912 8.55481 4.12537 0 0
7.04232 8.55452 4.08338 0 0
7.07687 8.55944 4.22232 0 0
7.11058 8.55996 4.20816 0 0
7.14481 8.56246 4.26359 0 0
7.1784 8.56215 4.2216 0 0
7.21237 8.56376 4.2492 0 0
7.24589 8.56376 4.22113 0 0
7.27958 8.56527 4.24873 0 0
7.31271 8.56513 4.22067 0 0
7.34666 8.56972 4.35962 0 0
7.37958 8.57105 4.38724 0 0
7.41172 8.57036 4.34526 0 0
7.44384 8.57125 4.35896 0 0
7.47565 8.57252 4.38659 0 0
7.50674 8.5726 4.37246 0 0
7.53762 8.57348 4.38617 0 0
7.56863 8.57676 4.48339 0 0
7.59905 8.57881 4.53886 0 0
7.65851 8.58041 4.5663 0 0
7.68807 8.58196 4.60786 0 0
7.74725 8.58731 4.77449 0 0
7.77613 8.58755 4.7743 0 0
7.80495 8.58775 4.77411 0 0
7.8338 8.58833 4.78785 0 0
7.86282 8.58968 4.82941 0 0
7.8916 8.58984 4.82923 0 0
7.94961 8.59139 4.87061 0 0
7.97865 8.59156 4.87042 0 0
8.00788 8.5922 4.88415 0 0
8.03714 8.59246 4.88395 0 0
8.06668 8.59353 4.9116 0 0
8.09622 8.59424 4.92532 0 0
8.12563 8.59415 4.91121 0 0
8.15489 8.5933 4.86926 0 0
8.18419 8.59242 4.82731 0 0
8.21337 8.59117 4.77144 0 0
8.24282 8.59112 4.75732 0 0
8.27135 8.58707 4.60403 0 0
8.29878 8.57826 4.28372 0 0
8.32816 8.57864 4.28352 0 0
8.35745 8.57905 4.28332 0 0
8.38656 8.57911 4.26921 0 0
8.41672 8.5844 4.43603 0 0
8.44579 8.58536 4.44975 0 0
8.47351 8.58079 4.26861 0 0
8.5025 8.58269 4.31017 0 0
8.53101 8.58304 4.29604 0 0
8.55947 8.58385 4.29584 0 0
8.58781 8.58466 4.29564 0 0
8.61532 8.58228 4.18409 0 0
8.64374 8.58465 4.23957 0 0
8.67093 8.58176 4.11411 0 0
8.69878 8.58241 4.11391 0 0
8.72697 8.58494 4.18331 0 0
8.7541 8.58299 4.09962 0 0
8.78165 8.58331 4.09943 0 0
8.80893 8.58267 4.07142 0 0
8.83622 8.58228 4.05733 0 0
8.86328 8.58091 4.01541 0 0
8.89052 8.58056 4.01525 0 0
8.91781 8.5804 4.02901 0 0
8.94468 8.57842 3.98711 0 0
8.97188 8.57784 4.00088 0 0
8.99884 8.57624 3.98683 0 0
9.02562 8.57361 3.94494 0 0
9.05218 8.56996 3.87523 0 0
9.07896 8.56731 3.84728 0 0
9.10588 8.56527 3.84717 0 0
9.13258 8.56226 3.81922 0 0
9.15968 8.56109 3.86088 0 0
9.18646 8.55858 3.86078 0 0
9.21312 8.55557 3.84677 0 0
9.2399 8.55322 3.8606 0 0
9.26628 8.54919 3.81875 0 0
9.29311 8.54753 3.86042 0 0
9.31965 8.54461 3.86034 0 0
9.34594 8.5409 3.83242 0 0
9.37255 8.53883 3.86017 0 0
9.39889 8.53604 3.86009 0 0
9.42543 8.53452 3.90175 0 0
9.50382 8.52734 3.90146 0 0
9.52925 8.52291 3.81785 0 0
3.41768 8.22874 5.78721 0 0
3.47082 8.22184 5.21594 0 0
3.55491 8.22674 4.93666 0 0
3.66776 8.2302 4.51795 0 0
3.7244 8.23192 4.32252 0 0
3.75345 8.23632 4.35007 0 0
3.78138 8.23589 4.21061 0 0
3.80999 8.23906 4.19641 0 0
3.83784 8.23942 4.08478 0 0
3.86596 8.24182 4.04274 0 0
3.89348 8.24224 3.93112 0 0
3.92155 8.24631 3.94475 0 0
3.94861 8.24682 3.83313 0 0
3.97596 8.24979 3.80501 0 0
4.00323 8.25363 3.80473 0 0
4.0299 8.25594 3.74877 0 0
4.05594 8.2563 3.62323 0 0
4.08272 8.26113 3.65078 0 0
4.10839 8.26161 3.52523 0 0
4.13469 8.26574 3.52495 0 0
4.16105 8.27071 3.5525 0 0
4.18653 8.27214 3.45479 0 0
4.2122 8.27479 3.39883 0 0
4.23897 8.28266 3.52381 0 0
4.26425 8.28376 3.41217 0 0
4.28963 8.28527 3.31446 0 0
4.31557 8.28919 3.30025 0 0
4.34177 8.29387 3.31388 0 0
4.3677 8.29696 3.27184 0 0
4.39349 8.29883 3.18805 0 0
4.42028 8.30463 3.24343 0 0
4.44671 8.308 3.21531 0 0
4.47339 8.31171 3.2011 0 0
4.50026 8.31538 3.1869 0 0
4.52725 8.3186 3.15877 0 0
4.55471 8.32298 3.17241 0 0
4.5823 8.32694 3.17212 0 0
4.61011 8.33087 3.17183 0 0
4.63823 8.33521 3.18546 0 0
4.66632 8.33834 3.15733 0 0
4.70421 8.38503 4.64627 0 0
4.72351 8.34624 3.15674 0 0
4.75251 8.35062 3.17036 0 0
4.78173 8.35502 3.18398 0 0
4.81098 8.35866 3.16976 0 0
4.8406 8.36311 3.18338 0 0
4.86997 8.36562 3.1274 0 0
4.90034 8.37174 3.19669 0 0
4.93044 8.3759 3.19638 0 0
4.96083 8.38049 3.20998 0 0
4.99129 8.3847 3.20967 0 0
5.02194 8.38895 3.20935 0 0
5.05275 8.39321 3.20904 0 0
5.08372 8.39752 3.20872 0 0
5.11505 8.40262 3.23623 0 0
5.14609 8.40575 3.19416 0 0
5.17781 8.41128 3.23559 0 0
5.20944 8.41563 3.23527 0 0
5.24149 8.42117 3.27669 0 0
5.27343 8.42551 3.27637 0 0
5.30561 8.43024 3.28996 0 0
5.33786 8.43455 3.28963 0 0
5.37028 8.43884 3.2893 0 0
5.40276 8.4427 3.27506 0 0
5.43531 8.44615 3.24689 0 0
5.46852 8.45197 3.30224 0 0
5.50205 8.45856 3.38542 0 0
5.53491 8.4615 3.34334 0 0
5.56794 8.46484 3.31517 0 0
5.60133 8.46934 3.32876 0 0
5.63486 8.47423 3.35627 0 0
5.66823 8.47827 3.35594 0 0
5.70143 8.48152 3.32778 0 0
5.73511 8.48713 3.38313 0 0
5.76865 8.49232 3.42456 0 0
5.80167 8.49546 3.3964 0 0
5.83517 8.50134 3.46567 0 0
5.86799 8.50476 3.45143 0 0
5.90123 8.51083 3.53463 0 0
5.93354 8.51357 3.50649 0 0
5.96601 8.51811 3.54794 0 0
5.99796 8.52124 3.54765 0 0
6.02972 8.5246 3.56128 0 0
6.06128 8.52779 3.57492 0 0
6.09263 8.53086 3.58857 0 0
6.12375 8.53344 3.5883 0 0
6.15492 8.53675 3.61586 0 0
6.18616 8.54081 3.67127 0 0
6.21716 8.54403 3.69884 0 0
6.24821 8.54762 3.74033 0 0
6.27913 8.55076 3.76791 0 0
6.30979 8.55266 3.75373 0 0
6.34098 8.55689 3.82306 0 0
6.37166 8.55863 3.80889 0 0
6.40289 8.56263 3.87823 0 0
6.43373 8.56444 3.87798 0 0
6.46479 8.56681 3.90558 0 0
6.52689 8.57001 3.93295 0 0
6.55784 8.57051 3.91881 0 0
6.5893 8.57287 3.97427 0 0
6.62037 8.57315 3.96013 0 0
6.65186 8.57494 4.00167 0 0
6.68323 8.57589 4.01538 0 0
6.71485 8.57762 4.05692 0 0
6.74621 8.57773 4.04279 0 0
6.77774 8.57825 4.04257 0 0
6.80939 8.57876 4.04236 0 0
6.84153 8.5809 4.09782 0 0
6.87324 8.58024 4.05585 0 0
6.90587 8.58282 4.12522 0 0
6.93826 8.58306 4.11107 0 0
6.9708 8.58257 4.06909 0 0
7.00467 8.5865 4.18021 0 0
7.03799 8.5865 4.15214 0 0
7.07223 8.58971 4.23541 0 0
7.10583 8.58934 4.19342 0 0
7.1402 8.59214 4.26277 0 0
7.17393 8.59211 4.2347 0 0
7.20797 8.59365 4.2623 0 0
7.2418 8.59471 4.27599 0 0
7.27557 8.59611 4.30359 0 0
7.30826 8.59348 4.19202 0 0
7.34202 8.59676 4.28922 0 0
7.37547 8.60001 4.38643 0 0
7.40805 8.60084 4.40013 0 0
7.43989 8.60005 4.35816 0 0
7.47201 8.60249 4.42754 0 0
7.50332 8.60334 4.44125 0 0
7.53464 8.60624 4.52455 0 0
7.56504 8.60673 4.52434 0 0
7.59526 8.60802 4.55197 0 0
7.62557 8.61086 4.63528 0 0
7.65491 8.61049 4.60725 0 0
7.68447 8.61206 4.64881 0 0
7.71457 8.6168 4.80171 0 0
7.77237 8.61695 4.78741 0 0
7.80126 8.61757 4.80114 0 0
7.83009 8.61816 4.81487 0 0
7.85884 8.61834 4.81469 0 0
7.88779 8.61931 4.84234 0 0
7.91669 8.61987 4.85607 0 0
7.94569 8.62045 4.8698 0 0
7.9748 8.62105 4.88353 0 0
8.00413 8.6221 4.91117 0 0
8.03342 8.62238 4.91098 0 0
8.06228 8.62027 4.82728 0 0
8.09246 8.62378 4.93843 0 0
8.12172 8.62292 4.89648 0 0
8.1511 8.62244 4.86844 0 0
8.18042 8.62158 4.82649 0 0
8.24358 8.64063 5.46633 0 0
8.26746 8.61539 4.57538 0 0
8.29692 8.61576 4.57518 0 0
8.32543 8.61212 4.43581 0 0
8.35475 8.61251 4.43561 0 0
8.38388 8.61254 4.4215 0 0
8.41318 8.61382 4.44914 0 0
8.442 8.61356 4.4211 0 0
8.4699 8.60979 4.2678 0 0
8.49856 8.61012 4.25368 0 0
8.52742 8.6121 4.29523 0 0
8.55608 8.61375 4.32287 0 0
8.58433 8.6142 4.30874 0 0
8.61246 8.61465 4.29462 0 0
8.64037 8.61467 4.26659 0 0
8.66808 8.61422 4.22464 0 0
8.69515 8.61129 4.09918 0 0
8.72299 8.61227 4.1129 0 0
8.75037 8.61154 4.07096 0 0
8.77793 8.61185 4.07078 0 0
8.80486 8.60965 3.98709 0 0
8.83233 8.61006 4.00084 0 0
8.85972 8.61031 4.01459 0 0
8.88688 8.60957 4.00051 0 0
8.91364 8.60701 3.93076 0 0
8.94085 8.60663 3.94453 0 0
8.96779 8.60482 3.91655 0 0
8.99494 8.60398 3.93034 0 0
9.02164 8.60092 3.87453 0 0
9.04846 8.59843 3.84658 0 0
9.07553 8.59694 3.86038 0 0
9.10239 8.59444 3.84635 0 0
9.12935 8.59255 3.86016 0 0
9.15613 8.5897 3.84615 0 0
9.18292 8.58711 3.84605 0 0
9.2095 8.58361 3.81813 0 0
9.23605 8.57996 3.7902 0 0
9.26305 8.57864 3.84579 0 0
9.28976 8.57606 3.85963 0 0
9.3163 8.57303 3.85955 0 0
9.34271 8.5696 3.84555 0 0
9.36915 8.56661 3.84547 0 0
9.39549 8.5637 3.84538 0 0
9.42232 8.56327 3.92881 0 0
9.44816 8.55906 3.87304 0 0
9.49998 8.55274 3.81718 0 0
9.55188 8.54927 3.83088 0 0
3.41763 8.26061 5.85594 0 0
3.49916 8.25721 5.25653 0 0
3.63901 8.25771 4.57306 0 0
3.72439 8.26153 4.32167 0 0
3.78161 8.26628 4.2376 0 0
3.86634 8.27263 4.08365 0 0
3.8947 8.27709 4.1112 0 0
3.92188 8.27719 3.98566 0 0
3.94978 8.28174 4.01321 0 0
3.9762 8.28079 3.84591 0 0
4.00324 8.28389 3.81779 0 0
4.05589 8.28712 3.6502 0 0
4.08243 8.29122 3.64992 0 0
4.1087 8.29499 3.63572 0 0
4.16025 8.30031 3.5238 0 0
4.18532 8.30063 3.38433 0 0
4.21191 8.30817 3.49538 0 0
4.23774 8.31255 3.4951 0 0
4.26331 8.31573 3.45305 0 0
4.28862 8.31772 3.36926 0 0
4.3144 8.32172 3.35505 0 0
4.33975 8.32328 3.25733 0 0
4.36597 8.32844 3.28488 0 0
4.39242 8.33394 3.32635 0 0
4.4183 8.3362 3.25647 0 0
4.44462 8.3396 3.22834 0 0
4.47113 8.34294 3.20022 0 0
4.49812 8.34743 3.21385 0 0
4.5253 8.35188 3.22748 0 0
4.55238 8.35467 3.18544 0 0
4.57976 8.35783 3.15732 0 0
4.60765 8.36216 3.17095 0 0
4.63578 8.36647 3.18458 0 0
4.66388 8.36958 3.15645 0 0
4.69246 8.37389 3.17007 0 0
4.72127 8.37821 3.1837 0 0
4.75002 8.38134 3.15557 0 0
4.77934 8.38611 3.18311 0 0
4.80851 8.3893 3.15497 0 0
4.83825 8.3941 3.18251 0 0
4.86789 8.39775 3.16828 0 0
4.89802 8.40262 3.19581 0 0
4.92814 8.40673 3.19551 0 0
4.95844 8.41086 3.1952 0 0
4.98883 8.41465 3.18097 0 0
5.01975 8.42003 3.22241 0 0
5.0503 8.42306 3.18034 0 0
5.08163 8.42893 3.23569 0 0
5.11278 8.43318 3.23537 0 0
5.14408 8.43747 3.23505 0 0
5.17564 8.44218 3.24865 0 0
5.20724 8.44649 3.24832 0 0
5.23901 8.45083 3.248 0 0
5.27101 8.45555 3.26159 0 0
5.30319 8.46028 3.27518 0 0
5.33532 8.46421 3.26094 0 0
5.36778 8.46891 3.27453 0 0
5.40049 8.47402 3.30203 0 0
5.43318 8.47831 3.3017 0 0
5.46582 8.48178 3.27354 0 0
5.49913 8.48764 3.32888 0 0
5.53213 8.49148 3.31463 0 0
5.56542 8.49611 3.32822 0 0
5.59868 8.50032 3.32789 0 0
5.63208 8.50493 3.34148 0 0
5.66542 8.50912 3.34115 0 0
5.69886 8.5137 3.35473 0 0
5.7322 8.51786 3.3544 0 0
5.76573 8.5232 3.39583 0 0
5.79902 8.5277 3.40942 0 0
5.8321 8.53175 3.40909 0 0
5.86512 8.53612 3.42269 0 0
5.89788 8.53996 3.42237 0 0
5.93082 8.5456 3.49165 0 0
5.96324 8.54983 3.51919 0 0
5.9951 8.55259 3.50498 0 0
6.02686 8.55592 3.51861 0 0
6.0584 8.55906 3.53225 0 0
6.08983 8.56248 3.55982 0 0
6.1211 8.56579 3.58738 0 0
6.15202 8.56785 3.5732 0 0
6.18319 8.57146 3.61469 0 0
6.21412 8.57425 3.62834 0 0
6.24527 8.57821 3.68375 0 0
6.27622 8.58134 3.71133 0 0
6.30732 8.58522 3.76674 0 0
6.33826 8.58825 3.79432 0 0
6.36929 8.59159 3.83582 0 0
6.40025 8.5944 3.8634 0 0
6.43081 8.59502 3.8214 0 0
6.46219 8.59896 3.90467 0 0
6.49308 8.60018 3.90444 0 0
6.52418 8.60193 3.93205 0 0
6.55543 8.60388 3.97359 0 0
6.58644 8.6045 3.97338 0 0
6.61751 8.60503 3.97317 0 0
6.6488 8.60629 4.00079 0 0
6.67998 8.6067 4.00059 0 0
6.71138 8.60791 4.02821 0 0
6.74286 8.6091 4.05584 0 0
6.77416 8.60909 4.04171 0 0
6.8059 8.61068 4.08326 0 0
6.83778 8.61229 4.1248 0 0
6.86983 8.61392 4.16634 0 0
6.90148 8.61278 4.11045 0 0
6.9337 8.61289 4.09632 0 0
6.96693 8.61587 4.1796 0 0
6.99998 8.6161 4.16546 0 0
7.03358 8.61723 4.17914 0 0
7.0677 8.61956 4.23458 0 0
7.10196 8.62189 4.29002 0 0
7.13575 8.6218 4.26195 0 0
7.16981 8.62289 4.27563 0 0
7.20405 8.62511 4.33107 0 0
7.23741 8.6237 4.26125 0 0
7.27113 8.6246 4.27494 0 0
7.30457 8.62506 4.27472 0 0
7.33813 8.62707 4.33017 0 0
7.37157 8.62981 4.41346 0 0
7.40397 8.62935 4.38541 0 0
7.43633 8.63049 4.41303 0 0
7.46824 8.63167 4.44066 0 0
7.4999 8.63413 4.51004 0 0
7.53103 8.63623 4.5655 0 0
7.56168 8.63795 4.60705 0 0
7.59138 8.63687 4.55117 0 0
7.65145 8.64142 4.67603 0 0
7.6805 8.64062 4.63408 0 0
7.70955 8.64058 4.61997 0 0
7.73864 8.64131 4.63369 0 0
7.76857 8.64638 4.80052 0 0
7.79748 8.64701 4.81425 0 0
7.82623 8.64723 4.81406 0 0
7.85506 8.64783 4.82779 0 0
7.88381 8.648 4.82761 0 0
7.91261 8.64817 4.82742 0 0
7.94157 8.64876 4.84115 0 0
7.97068 8.64937 4.85488 0 0
7.99986 8.64961 4.85469 0 0
8.02926 8.65032 4.86841 0 0
8.05879 8.65104 4.88214 0 0
8.08847 8.65216 4.90978 0 0
8.14743 8.65203 4.88155 0 0
8.17634 8.64915 4.77001 0 0
8.20583 8.64909 4.75589 0 0
8.23538 8.64942 4.7557 0 0
8.26438 8.64736 4.67199 0 0
8.32213 8.64284 4.49067 0 0
8.3512 8.64202 4.44872 0 0
8.38044 8.64242 4.44852 0 0
8.40956 8.64288 4.44833 0 0
8.43851 8.64298 4.43421 0 0
8.46616 8.63801 4.23916 0 0
8.495 8.63916 4.25287 0 0
8.52404 8.642 4.32226 0 0
8.55253 8.64288 4.32205 0 0
8.58087 8.64378 4.32185 0 0
8.60882 8.64347 4.27989 0 0
8.6364 8.64193 4.19618 0 0
8.66411 8.64149 4.15423 0 0
8.69212 8.643 4.18187 0 0
8.71962 8.64241 4.13992 0 0
8.747 8.6417 4.09798 0 0
8.7742 8.64044 4.04212 0 0
8.80192 8.64184 4.0837 0 0
8.82938 8.64229 4.09744 0 0
8.85633 8.64054 4.0416 0 0
8.91076 8.63964 4.04128 0 0
8.93764 8.63767 3.99938 0 0
8.96437 8.63507 3.94357 0 0
8.99162 8.63459 3.97127 0 0
9.01842 8.63188 3.92939 0 0
9.04561 8.63097 3.9571 0 0
9.07197 8.62621 3.85956 0 0
9.09902 8.62446 3.87337 0 0
9.12583 8.62173 3.85935 0 0
9.15261 8.61882 3.84533 0 0
9.17943 8.61613 3.84524 0 0
9.20619 8.61334 3.84515 0 0
9.23285 8.61 3.83115 0 0
9.25961 8.60738 3.84499 0 0
9.28615 8.60389 3.83099 0 0
9.3128 8.60114 3.84483 0 0
9.3393 8.59801 3.84475 0 0
9.39206 8.59147 3.83068 0 0
9.41851 8.58936 3.85843 0 0
9.44447 8.58543 3.81659 0 0
9.4705 8.58253 3.80258 0 0
3.20547 8.28654 7.15203 0 0
3.58176 8.284 4.7259 0 0
3.61073 8.28787 4.72561 0 0
3.63984 8.29205 4.73923 0 0
3.69553 8.28823 4.34895 0 0
3.8109 8.30133 4.30606 0 0
3.86674 8.30335 4.12455 0 0
3.92184 8.30596 3.95697 0 0
3.98067 8.33042 4.54096 0 0
4.00334 8.31402 3.83085 0 0
4.02955 8.31488 3.71922 0 0
4.05577 8.317 3.64935 0 0
4.08238 8.32201 3.6769 0 0
4.1081 8.32387 3.5931 0 0
4.13391 8.32701 3.55106 0 0
4.15976 8.33097 3.53685 0 0
4.18539 8.33457 3.50872 0 0
4.21087 8.33782 3.46668 0 0
4.23673 8.34309 3.49423 0 0
4.26178 8.34476 3.39651 0 0
4.28701 8.34724 3.32663 0 0
4.31282 8.35209 3.34026 0 0
4.33836 8.35533 3.29821 0 0
4.36408 8.35894 3.27009 0 0
4.3902 8.3637 3.28372 0 0
4.41649 8.36842 3.29734 0 0
4.44251 8.37104 3.24138 0 0
4.46921 8.37562 3.25501 0 0
4.49532 8.37655 3.14338 0 0
4.52273 8.38219 3.19877 0 0
4.54986 8.38538 3.17064 0 0
4.5775 8.38973 3.18428 0 0
4.6053 8.39365 3.18399 0 0
4.63333 8.39754 3.1837 0 0
4.66162 8.40142 3.18341 0 0
4.68987 8.4041 3.14136 0 0
4.71895 8.40957 3.19674 0 0
4.74782 8.41306 3.18253 0 0
4.77696 8.41699 3.18223 0 0
4.80642 8.42133 3.19585 0 0
4.83599 8.42528 3.19555 0 0
4.86567 8.42888 3.18133 0 0
4.8958 8.4337 3.20887 0 0
4.92577 8.43695 3.18072 0 0
4.95625 8.44184 3.20825 0 0
4.98657 8.44517 3.1801 0 0
5.01732 8.44972 3.19371 0 0
5.04841 8.4551 3.23515 0 0
5.0793 8.4589 3.22091 0 0
5.11063 8.46394 3.24843 0 0
5.14184 8.46779 3.23419 0 0
5.17329 8.47207 3.23387 0 0
5.20499 8.47676 3.24747 0 0
5.23691 8.48187 3.27498 0 0
5.26871 8.48579 3.26074 0 0
5.30076 8.49011 3.26041 0 0
5.33313 8.49525 3.28792 0 0
5.36554 8.49998 3.30151 0 0
5.39803 8.50431 3.30118 0 0
5.43068 8.50864 3.30085 0 0
5.46353 8.51336 3.31444 0 0
5.49655 8.51807 3.32802 0 0
5.5296 8.5224 3.32769 0 0
5.56265 8.5263 3.31344 0 0
5.59605 8.53141 3.34094 0 0
5.62925 8.53533 3.32669 0 0
5.66266 8.54003 3.34028 0 0
5.69606 8.54472 3.35386 0 0
5.72954 8.54982 3.38136 0 0
5.76324 8.5561 3.45062 0 0
5.79627 8.55954 3.42245 0 0
5.82936 8.56374 3.42212 0 0
5.86242 8.56825 3.43572 0 0
5.89546 8.57343 3.47715 0 0
5.92829 8.57842 3.51859 0 0
5.96064 8.58232 3.5322 0 0
5.99257 8.58549 3.53191 0 0
6.02431 8.58877 3.54555 0 0
6.05584 8.59185 3.55919 0 0
6.08716 8.5948 3.57284 0 0
6.11836 8.59766 3.58649 0 0
6.14955 8.60087 3.61406 0 0
6.18064 8.60404 3.64163 0 0
6.21187 8.60799 3.69704 0 0
6.24295 8.6115 3.73853 0 0
6.27394 8.61462 3.76611 0 0
6.30428 8.61489 3.69626 0 0
6.33568 8.61991 3.79343 0 0
6.36672 8.62326 3.83493 0 0
6.39787 8.62688 3.89035 0 0
6.42885 8.62952 3.91793 0 0
6.45968 8.63106 3.9177 0 0
6.49081 8.63338 3.95922 0 0
6.52172 8.63419 3.959 0 0
6.55246 8.63401 3.93096 0 0
6.58386 8.63651 4.00034 0 0
6.61485 8.63692 4.00013 0 0
6.64624 8.63888 4.05559 0 0
6.67731 8.63921 4.05539 0 0
6.70844 8.63951 4.05518 0 0
6.73953 8.63942 4.04106 0 0
6.77115 8.64132 4.09653 0 0
6.80266 8.64242 4.12416 0 0
6.83422 8.64313 4.13787 0 0
6.86601 8.64426 4.16549 0 0
6.89794 8.645 4.1792 0 0
6.93032 8.64661 4.22074 0 0
6.96298 8.64748 4.23444 0 0
6.99575 8.64647 4.17854 0 0
7.02991 8.64991 4.27574 0 0
7.06362 8.65017 4.26159 0 0
7.09737 8.65003 4.23352 0 0
7.1317 8.65226 4.28896 0 0
7.16584 8.65365 4.31656 0 0
7.19993 8.65501 4.34417 0 0
7.23392 8.65629 4.37178 0 0
7.26749 8.65633 4.35764 0 0
7.3013 8.65831 4.41309 0 0
7.33479 8.65982 4.45462 0 0
7.36758 8.65931 4.42657 0 0
7.39996 8.65836 4.3846 0 0
7.43257 8.66024 4.44006 0 0
7.46488 8.66296 4.52336 0 0
7.49602 8.66302 4.50923 0 0
7.52703 8.66474 4.55078 0 0
7.5574 8.66529 4.55057 0 0
7.58788 8.66782 4.61996 0 0
7.61782 8.66914 4.64759 0 0
7.64779 8.6716 4.71698 0 0
7.67702 8.67163 4.70286 0 0
7.70688 8.67521 4.81401 0 0
7.7358 8.67515 4.7999 0 0
7.76489 8.67625 4.82755 0 0
7.79371 8.67651 4.82736 0 0
7.82255 8.67714 4.84109 0 0
7.85119 8.67695 4.82698 0 0
7.88002 8.67753 4.84071 0 0
7.9089 8.6781 4.85444 0 0
7.93777 8.6783 4.85426 0 0
7.96678 8.67851 4.85407 0 0
7.99608 8.67918 4.86779 0 0
8.02561 8.6803 4.89544 0 0
8.05499 8.68023 4.88132 0 0
8.11393 8.68011 4.85309 0 0
8.14379 8.68164 4.89465 0 0
8.17192 8.67518 4.65785 0 0
8.20205 8.67792 4.74116 0 0
8.23162 8.67824 4.74096 0 0
8.25984 8.67257 4.532 0 0
8.2896 8.6741 4.57356 0 0
8.31816 8.67042 4.43418 0 0
8.34758 8.67118 4.4479 0 0
8.37675 8.67115 4.43379 0 0
8.40589 8.67158 4.43359 0 0
8.43503 8.67248 4.44731 0 0
8.4626 8.6671 4.23834 0 0
8.49171 8.66947 4.29381 0 0
8.5205 8.67114 4.32144 0 0
8.54888 8.67167 4.30732 0 0
8.57672 8.67021 4.2236 0 0
8.6051 8.67193 4.25124 0 0
8.63293 8.67162 4.20928 0 0
8.66065 8.67122 4.16733 0 0
8.68832 8.67114 4.13929 0 0
8.71607 8.67177 4.1391 0 0
8.74354 8.67149 4.11107 0 0
8.77082 8.67066 4.06914 0 0
8.79802 8.66967 4.0272 0 0
8.82538 8.66972 4.02703 0 0
8.85277 8.66999 4.04078 0 0
8.87956 8.66766 3.97103 0 0
8.9069 8.66792 3.99871 0 0
8.93385 8.66635 3.97072 0 0
8.96084 8.66494 3.95666 0 0
8.98765 8.66246 3.91477 0 0
9.01445 8.65971 3.87289 0 0
9.04148 8.65796 3.87277 0 0
9.06839 8.65556 3.85874 0 0
9.09525 8.65295 3.84472 0 0
9.12217 8.65057 3.84461 0 0
9.14879 8.64682 3.80276 0 0
9.17588 8.64527 3.84443 0 0
9.2024 8.64117 3.80259 0 0
9.22923 8.63858 3.81642 0 0
9.25609 8.63626 3.84418 0 0
9.28273 8.63308 3.8441 0 0
9.30931 8.62984 3.84403 0 0
9.33567 8.62579 3.81612 0 0
9.44115 8.61393 3.82972 0 0
3.25892 8.32637 7.12269 0 0
3.6688 8.32522 4.7381 0 0
3.73073 8.34921 5.32208 0 0
3.75441 8.32841 4.4728 0 0
3.78318 8.33116 4.44467 0 0
3.81117 8.33114 4.31913 0 0
3.8399 8.33513 4.33276 0 0
3.86717 8.33358 4.15154 0 0
3.89509 8.33607 4.10951 0 0
3.92269 8.33823 4.05355 0 0
3.97704 8.34282 3.94163 0 0
4.00326 8.34285 3.80217 0 0
4.03029 8.34777 3.82972 0 0
4.05573 8.34678 3.64849 0 0
4.08241 8.35267 3.70388 0 0
4.10828 8.35582 3.66183 0 0
4.13388 8.35864 3.60587 0 0
4.15933 8.36151 3.54991 0 0
4.18456 8.36402 3.48002 0 0
4.21058 8.37054 3.54932 0 0
4.2354 8.37188 3.43769 0 0
4.26117 8.37765 3.47915 0 0
4.28651 8.38139 3.45102 0 0
4.31136 8.38272 3.33939 0 0
4.33655 8.38524 3.26951 0 0
4.36256 8.3909 3.31097 0 0
4.38835 8.3949 3.29676 0 0
4.41425 8.39845 3.26864 0 0
4.4406 8.40314 3.28227 0 0
4.4672 8.40775 3.2959 0 0
4.49369 8.41066 3.25385 0 0
4.52035 8.41312 3.1979 0 0
4.54771 8.4175 3.21153 0 0
4.57481 8.41945 3.14165 0 0
4.60296 8.42494 3.19703 0 0
4.63092 8.4284 3.18283 0 0
4.65921 8.43226 3.18254 0 0
4.68781 8.4365 3.19617 0 0
4.71648 8.43994 3.18196 0 0
4.74545 8.44379 3.18166 0 0
4.77454 8.44725 3.16745 0 0
4.80393 8.45115 3.16715 0 0
4.83369 8.45587 3.19469 0 0
4.86356 8.46021 3.20831 0 0
4.89345 8.46378 3.19409 0 0
4.92378 8.46858 3.22162 0 0
4.95394 8.47183 3.19347 0 0
4.98453 8.4763 3.20708 0 0
5.01537 8.48119 3.23461 0 0
5.04619 8.48533 3.23429 0 0
5.07719 8.48949 3.23398 0 0
5.10843 8.49409 3.24758 0 0
5.13972 8.4983 3.24726 0 0
5.17099 8.50175 3.21911 0 0
5.20267 8.50642 3.2327 0 0
5.23466 8.5119 3.27413 0 0
5.26644 8.51581 3.25989 0 0
5.29836 8.51974 3.24565 0 0
5.3306 8.52447 3.25924 0 0
5.39557 8.53436 3.30033 0 0
5.42816 8.53872 3.3 0 0
5.46106 8.54389 3.32751 0 0
5.49394 8.54825 3.32717 0 0
5.52729 8.55422 3.38251 0 0
5.56013 8.5574 3.34042 0 0
5.59332 8.56179 3.34009 0 0
5.62691 8.56778 3.39542 0 0
5.65983 8.57058 3.33942 0 0
5.69372 8.57778 3.43651 0 0
5.72663 8.58057 3.3805 0 0
5.75987 8.58497 3.38016 0 0
5.79323 8.59013 3.40766 0 0
5.8264 8.59484 3.42125 0 0
5.85928 8.59867 3.407 0 0
5.89211 8.60279 3.40668 0 0
5.92489 8.60752 3.43419 0 0
5.95762 8.6131 3.50348 0 0
5.98955 8.61624 3.50319 0 0
6.02108 8.61868 3.48899 0 0
6.05275 8.62249 3.53047 0 0
6.08408 8.62539 3.54412 0 0
6.11538 8.6286 3.57169 0 0
6.1465 8.63136 3.58534 0 0
6.17756 8.63409 3.599 0 0
6.20856 8.63681 3.61265 0 0
6.23969 8.64031 3.65415 0 0
6.2709 8.64417 3.70956 0 0
6.3019 8.64721 3.73714 0 0
6.33289 8.65021 3.76472 0 0
6.36396 8.65354 3.80621 0 0
6.39477 8.65556 3.80596 0 0
6.42578 8.6582 3.83355 0 0
6.45705 8.66174 3.9029 0 0
6.48791 8.66276 3.90268 0 0
6.51914 8.66509 3.95813 0 0
6.55019 8.66644 3.98576 0 0
6.58112 8.66687 3.98555 0 0
6.61232 8.66842 4.0271 0 0
6.64346 8.66953 4.05473 0 0
6.70576 8.67124 4.09608 0 0
6.7366 8.67029 4.05412 0 0
6.76838 8.67332 4.15135 0 0
6.79927 8.67197 4.09547 0 0
6.83116 8.67461 4.17877 0 0
6.86257 8.67448 4.16465 0 0
6.89437 8.67516 4.17836 0 0
6.92626 8.67508 4.16423 0 0
6.95902 8.67706 4.21969 0 0
6.99233 8.67839 4.2473 0 0
7.02621 8.68057 4.30274 0 0
7.05989 8.68077 4.28859 0 0
7.09422 8.68337 4.35795 0 0
7.1278 8.68234 4.30205 0 0
7.16157 8.68207 4.27398 0 0
7.19581 8.68413 4.32943 0 0
7.23003 8.68655 4.39879 0 0
7.26375 8.68731 4.41249 0 0
7.29703 8.68683 4.38443 0 0
7.33026 8.68709 4.38422 0 0
7.3634 8.68809 4.41184 0 0
7.39616 8.68871 4.42554 0 0
7.42889 8.6909 4.49493 0 0
7.46081 8.69159 4.50863 0 0
7.49228 8.69325 4.55018 0 0
7.52275 8.69258 4.50821 0 0
7.55408 8.69753 4.66111 0 0
7.58423 8.69847 4.67482 0 0
7.61401 8.69899 4.67462 0 0
7.64365 8.69987 4.68833 0 0
7.67317 8.70112 4.71597 0 0
7.70305 8.7047 4.82712 0 0
7.7321 8.70506 4.82693 0 0
7.76119 8.70618 4.85457 0 0
7.78985 8.70567 4.82655 0 0
7.81872 8.70631 4.84027 0 0
7.84739 8.70613 4.82617 0 0
7.87606 8.70592 4.81206 0 0
7.9051 8.70732 4.85363 0 0
7.93396 8.70751 4.85344 0 0
7.96296 8.70772 4.85325 0 0
7.99238 8.70882 4.8809 0 0
8.02161 8.70834 4.85287 0 0
8.05127 8.70949 4.88051 0 0
8.08099 8.71064 4.90815 0 0
8.11031 8.70979 4.86619 0 0
8.13994 8.71012 4.866 0 0
8.16965 8.71086 4.87972 0 0
8.1983 8.70678 4.72643 0 0
8.2278 8.70671 4.71231 0 0
8.25761 8.70822 4.75387 0 0
8.28677 8.70696 4.698 0 0
8.31576 8.70528 4.62822 0 0
8.34389 8.70003 4.43317 0 0
8.37333 8.70119 4.46081 0 0
8.40109 8.69523 4.23793 0 0
8.4303 8.6965 4.26556 0 0
8.45922 8.69709 4.26537 0 0
8.48799 8.6979 4.26516 0 0
8.51659 8.69881 4.26495 0 0
8.57379 8.70232 4.32021 0 0
8.60165 8.70166 4.26434 0 0
8.62983 8.70294 4.27805 0 0
8.65781 8.70377 4.27785 0 0
8.68549 8.70372 4.24982 0 0
8.71323 8.70437 4.24962 0 0
8.74035 8.7025 4.16593 0 0
8.7677 8.70209 4.1379 0 0
8.79506 8.70193 4.12381 0 0
8.84936 8.70028 4.06779 0 0
8.87658 8.69997 4.06763 0 0
8.90339 8.69781 4.0118 0 0
8.93042 8.69666 3.99773 0 0
8.95742 8.69524 3.98367 0 0
8.98431 8.69315 3.9557 0 0
9.01119 8.6908 3.92774 0 0
9.03831 8.6894 3.94154 0 0
9.06513 8.68658 3.91359 0 0
9.09189 8.68354 3.88565 0 0
9.11865 8.68032 3.85771 0 0
9.14562 8.67808 3.87154 0 0
9.17236 8.67491 3.85753 0 0
9.1988 8.67034 3.80177 0 0
9.22562 8.66769 3.81561 0 0
9.25232 8.6645 3.81553 0 0
9.27924 8.66243 3.85721 0 0
9.30567 8.65831 3.8293 0 0
9.3322 8.65495 3.82923 0 0
9.35867 8.6516 3.82916 0 0
9.38516 8.64876 3.84301 0 0
9.41122 8.64441 3.80118 0 0
9.43745 8.64148 3.8011 0 0
9.46356 8.63883 3.80101 0 0
9.48941 8.63575 3.77307 0 0
9.56669 8.6301 3.75882 0 0
3.28591 8.36182 7.13543 0 0
3.36339 8.35486 6.36899 0 0
3.47289 8.35909 5.8667 0 0
3.5521 8.33934 4.73843 0 0
3.58106 8.3429 4.72421 0 0
3.63947 8.35091 4.73755 0 0
3.81064 8.35688 4.19302 0 0
3.83905 8.35926 4.15098 0 0
3.86732 8.3621 4.12286 0 0
3.92222 8.36402 3.92744 0 0
3.94987 8.36789 3.92716 0 0
3.97722 8.37188 3.92687 0 0
4.00454 8.37717 3.96834 0 0
4.05585 8.37685 3.66156 0 0
4.08219 8.38162 3.67519 0 0
4.1074 8.38248 3.54963 0 0
4.13323 8.38697 3.54934 0 0
4.15888 8.39153 3.54905 0 0
4.18388 8.39372 3.46525 0 0
4.20939 8.39873 3.47887 0 0
4.23432 8.40136 3.40899 0 0
4.25984 8.40679 3.43653 0 0
4.28456 8.40863 3.33881 0 0
4.31004 8.41362 3.35244 0 0
4.3354 8.41779 3.33823 0 0
4.3609 8.42191 3.32402 0 0
4.38636 8.42517 3.28198 0 0
4.41213 8.42876 3.25385 0 0
4.43827 8.43307 3.25356 0 0
4.46452 8.43649 3.22544 0 0
4.49102 8.43983 3.19731 0 0
4.51817 8.44468 3.22486 0 0
4.54532 8.44826 3.21066 0 0
4.57285 8.45219 3.21037 0 0
4.60073 8.45644 3.224 0 0
4.62845 8.45868 3.16805 0 0
4.65692 8.46329 3.19559 0 0
4.68546 8.46709 3.1953 0 0
4.71431 8.47131 3.20893 0 0
4.74322 8.4747 3.19472 0 0
4.77251 8.47892 3.20835 0 0
4.80165 8.48156 3.1663 0 0
4.83154 8.48664 3.20775 0 0
4.86142 8.49093 3.22137 0 0
4.89131 8.49446 3.20715 0 0
4.92149 8.49842 3.20685 0 0
4.95209 8.50359 3.24829 0 0
4.9826 8.50761 3.24799 0 0
5.01337 8.51207 3.26159 0 0
5.0443 8.51655 3.2752 0 0
5.07503 8.51948 3.23313 0 0
5.10627 8.52403 3.24673 0 0
5.1379 8.52982 3.30209 0 0
5.16926 8.53362 3.28785 0 0
5.20083 8.53787 3.28753 0 0
5.23254 8.54213 3.28721 0 0
5.26445 8.5468 3.3008 0 0
5.29644 8.55112 3.30048 0 0
5.32861 8.55587 3.31407 0 0
5.3606 8.559 3.27199 0 0
5.39323 8.56457 3.31341 0 0
5.42584 8.56935 3.327 0 0
5.45859 8.57415 3.34058 0 0
5.49141 8.57856 3.34025 0 0
5.52445 8.58338 3.35383 0 0
5.55742 8.58741 3.33958 0 0
5.59072 8.59265 3.36708 0 0
5.62399 8.59751 3.38066 0 0
5.6572 8.60197 3.38032 0 0
5.69053 8.60685 3.3939 0 0
5.72373 8.61133 3.39356 0 0
5.75701 8.61619 3.40714 0 0
5.78997 8.61983 3.37897 0 0
5.82321 8.62502 3.40647 0 0
5.85633 8.63013 3.43398 0 0
5.88932 8.63513 3.46149 0 0
5.92221 8.64032 3.50292 0 0
5.95472 8.64481 3.53045 0 0
5.98644 8.64713 3.50232 0 0
6.01815 8.6503 3.51596 0 0
6.04983 8.6541 3.55744 0 0
6.08101 8.65618 3.54325 0 0
6.11245 8.65977 3.58474 0 0
6.1437 8.66291 3.61231 0 0
6.17507 8.66681 3.66772 0 0
6.20621 8.66989 3.6953 0 0
6.23742 8.67335 3.73679 0 0
6.26822 8.67519 3.72262 0 0
6.29928 8.67819 3.75019 0 0
6.33076 8.68313 3.84736 0 0
6.36144 8.68442 3.81927 0 0
6.39291 8.68917 3.91645 0 0
6.42369 8.69054 3.90229 0 0
6.45479 8.6932 3.9438 0 0
6.48585 8.69504 3.97142 0 0
6.51697 8.69699 4.01295 0 0
6.54795 8.69794 4.02666 0 0
6.57883 8.69837 4.02645 0 0
6.61009 8.7003 4.08192 0 0
6.64109 8.70099 4.09563 0 0
6.67256 8.70365 4.17894 0 0
6.70329 8.70268 4.13698 0 0
6.7344 8.70329 4.1507 0 0
6.76568 8.70431 4.17833 0 0
6.79668 8.70373 4.15029 0 0
6.82834 8.70555 4.20576 0 0
6.85962 8.70498 4.17772 0 0
6.8918 8.70762 4.26102 0 0
6.92394 8.70872 4.28865 0 0
6.98931 8.70954 4.28821 0 0
7.02298 8.71126 4.32974 0 0
7.05705 8.7138 4.3991 0 0
7.09076 8.71392 4.38496 0 0
7.12453 8.71402 4.37081 0 0
7.15839 8.71449 4.37058 0 0
7.19246 8.71609 4.41211 0 0
7.22644 8.71766 4.45364 0 0
7.25968 8.71637 4.39775 0 0
7.29361 8.71902 4.48104 0 0
7.32689 8.71963 4.49474 0 0
7.35982 8.71982 4.49453 0 0
7.39296 8.7224 4.57783 0 0
7.42504 8.7218 4.54978 0 0
7.45746 8.72488 4.647 0 0
7.48799 8.72209 4.53545 0 0
7.51948 8.72579 4.64658 0 0
7.54988 8.72631 4.64638 0 0
7.58024 8.72804 4.68792 0 0
7.61058 8.73094 4.77123 0 0
7.64017 8.73143 4.77103 0 0
7.6992 8.73428 4.84023 0 0
7.72802 8.73344 4.79828 0 0
7.75715 8.73459 4.82592 0 0
7.7861 8.73528 4.83965 0 0
7.81483 8.73514 4.82554 0 0
7.84353 8.73498 4.81144 0 0
7.87249 8.736 4.83908 0 0
7.90132 8.7362 4.8389 0 0
7.93037 8.73722 4.86654 0 0
7.95942 8.73747 4.86635 0 0
7.98883 8.73854 4.894 0 0
8.01813 8.73848 4.87988 0 0
8.04761 8.73882 4.87969 0 0
8.07698 8.73837 4.85165 0 0
8.10658 8.73871 4.85146 0 0
8.13594 8.73785 4.80951 0 0
8.16486 8.73499 4.69797 0 0
8.19483 8.73691 4.75344 0 0
8.22354 8.73323 4.61407 0 0
8.25294 8.73276 4.58603 0 0
8.28245 8.73307 4.58584 0 0
8.31197 8.7338 4.59956 0 0
8.34107 8.73295 4.55761 0 0
8.36948 8.72934 4.41824 0 0
8.39768 8.72537 4.26494 0 0
8.42708 8.72748 4.32042 0 0
8.456 8.72808 4.32022 0 0
8.48407 8.72569 4.20867 0 0
8.5134 8.72979 4.31981 0 0
8.54163 8.72953 4.27784 0 0
8.56988 8.73009 4.26372 0 0
8.59819 8.73143 4.27743 0 0
8.62602 8.73114 4.23548 0 0
8.654 8.73198 4.23527 0 0
8.68115 8.72955 4.12373 0 0
8.70897 8.7306 4.13746 0 0
8.73642 8.73035 4.10943 0 0
8.76396 8.73077 4.10924 0 0
8.79131 8.7306 4.09515 0 0
8.81867 8.73068 4.09497 0 0
8.84567 8.72939 4.05305 0 0
8.87281 8.72866 4.03897 0 0
8.9268 8.72616 3.99691 0 0
8.95335 8.72275 3.91326 0 0
8.98041 8.72145 3.91313 0 0
9.00745 8.7199 3.913 0 0
9.03438 8.71771 3.89896 0 0
9.06144 8.71605 3.91277 0 0
9.08796 8.7118 3.84307 0 0
9.11487 8.70934 3.84297 0 0
9.14157 8.70589 3.81504 0 0
9.16858 8.70386 3.84279 0 0
9.1953 8.70047 3.82879 0 0
9.22213 8.69774 3.84263 0 0
9.24875 8.6941 3.82864 0 0
9.27531 8.69037 3.81465 0 0
9.3021 8.68775 3.84241 0 0
9.32846 8.68353 3.81451 0 0
9.35512 8.68093 3.84227 0 0
9.38135 8.67677 3.81437 0 0
9.40751 8.6727 3.78646 0 0
9.43365 8.66925 3.77246 0 0
9.45978 8.66652 3.77238 0 0
9.51156 8.66192 3.75825 0 0
3.3629 8.38407 6.35423 0 0
3.41512 8.37714 5.78296 0 0
3.44162 8.37371 5.50429 0 0
3.55345 8.3767 5.01595 0 0
3.58081 8.37265 4.73729 0 0
3.6102 8.37729 4.76483 0 0
3.63921 8.37984 4.72279 0 0
3.69651 8.38113 4.51344 0 0
3.75473 8.38704 4.47111 0 0
3.78328 8.38819 4.38732 0 0
3.8121 8.39133 4.37312 0 0
3.84065 8.39412 4.34499 0 0
3.86755 8.39057 4.09419 0 0
3.8964 8.39707 4.19133 0 0
3.9232 8.3957 4.01011 0 0
3.95065 8.39882 3.98198 0 0
3.97777 8.40205 3.95386 0 0
4.00354 8.40061 3.75872 0 0
4.03102 8.40846 3.88369 0 0
4.05706 8.41122 3.82773 0 0
4.0824 8.41208 3.70217 0 0
4.10804 8.41542 3.66012 0 0
4.13327 8.41801 3.59024 0 0
4.15878 8.42263 3.58995 0 0
4.18372 8.42532 3.52006 0 0
4.20952 8.43241 3.60327 0 0
4.23384 8.43311 3.4638 0 0
4.25847 8.43541 3.38 0 0
4.28365 8.44009 3.37971 0 0
4.30868 8.44396 3.35158 0 0
4.33362 8.44698 3.29561 0 0
4.35921 8.45236 3.32316 0 0
4.38461 8.45606 3.29503 0 0
4.41067 8.4617 3.33649 0 0
4.43616 8.46363 3.2527 0 0
4.46239 8.46748 3.23849 0 0
4.48865 8.47001 3.18253 0 0
4.51585 8.47526 3.224 0 0
4.54299 8.47881 3.2098 0 0
4.57061 8.48311 3.22343 0 0
4.59832 8.48655 3.20923 0 0
4.62637 8.49034 3.20894 0 0
4.65434 8.49253 3.15298 0 0
4.68316 8.49749 3.19445 0 0
4.71204 8.50164 3.20808 0 0
4.74105 8.50541 3.20778 0 0
4.77028 8.50918 3.20749 0 0
4.79943 8.51178 3.16544 0 0
4.82941 8.5172 3.22082 0 0
4.85906 8.52024 3.19268 0 0
4.88941 8.52572 3.24805 0 0
4.91951 8.52922 3.23383 0 0
4.95004 8.53396 3.26137 0 0
4.98038 8.53713 3.23322 0 0
5.01116 8.54153 3.24683 0 0
5.0421 8.54598 3.26044 0 0
5.07283 8.54885 3.21837 0 0
5.10441 8.55497 3.28765 0 0
5.13569 8.55911 3.28733 0 0
5.16702 8.56289 3.2731 0 0
5.19875 8.56789 3.30061 0 0
5.23053 8.57254 3.31421 0 0
5.26234 8.5768 3.31389 0 0
5.29419 8.58069 3.29964 0 0
5.32625 8.58501 3.29932 0 0
5.35826 8.58857 3.27115 0 0
5.39074 8.59373 3.29866 0 0
5.42345 8.59934 3.34008 0 0
5.45613 8.60415 3.35367 0 0
5.48881 8.60818 3.33942 0 0
5.52198 8.61382 3.38084 0 0
5.55486 8.61789 3.36658 0 0
5.58819 8.62358 3.408 0 0
5.62104 8.62689 3.36591 0 0
5.65436 8.63221 3.3934 0 0
5.6875 8.63672 3.39306 0 0
5.72065 8.64125 3.39272 0 0
5.75385 8.64614 3.4063 0 0
5.78701 8.65103 3.41989 0 0
5.82018 8.65625 3.44739 0 0
5.853 8.66019 3.43314 0 0
5.88559 8.66359 3.40497 0 0
5.91843 8.66878 3.44641 0 0
5.95107 8.67402 3.50177 0 0
5.98302 8.6772 3.50148 0 0
6.01477 8.68045 3.51511 0 0
6.04615 8.68268 3.50092 0 0
6.07793 8.68716 3.57024 0 0
6.10916 8.68956 3.56998 0 0
6.14039 8.69229 3.58363 0 0
6.17175 8.69578 3.62512 0 0
6.20333 8.70043 3.70837 0 0
6.23443 8.70305 3.72203 0 0
6.26558 8.70605 3.74961 0 0
6.29655 8.70819 3.74935 0 0
6.32766 8.71109 3.77693 0 0
6.35893 8.7147 3.83235 0 0
6.38992 8.71697 3.84602 0 0
6.42153 8.72184 3.95712 0 0
6.45225 8.72245 3.92905 0 0
6.48357 8.72553 3.99841 0 0
6.51438 8.72593 3.98428 0 0
6.54551 8.72774 4.02582 0 0
6.5765 8.72861 4.03953 0 0
6.60763 8.73018 4.08108 0 0
6.63861 8.7309 4.09479 0 0
6.66972 8.73197 4.12243 0 0
6.70101 8.73383 4.1779 0 0
6.73174 8.73286 4.13594 0 0
6.76308 8.73428 4.17749 0 0
6.79415 8.73411 4.16337 0 0
6.82569 8.73553 4.20492 0 0
6.85756 8.73776 4.2743 0 0
6.88957 8.73963 4.32977 0 0
6.92119 8.73832 4.27389 0 0
6.9533 8.73746 4.23192 0 0
6.98674 8.74069 4.32913 0 0
7.02013 8.74194 4.35674 0 0
7.05361 8.74242 4.35651 0 0
7.08742 8.74369 4.38412 0 0
7.12123 8.74454 4.39782 0 0
7.15498 8.74493 4.39759 0 0
7.18903 8.7469 4.45304 0 0
7.22247 8.74642 4.42498 0 0
7.25613 8.74749 4.4526 0 0
7.28972 8.74891 4.49414 0 0
7.32292 8.74949 4.50784 0 0
7.35586 8.75006 4.52155 0 0
7.45285 8.75311 4.60443 0 0
7.48412 8.75349 4.60422 0 0
7.51522 8.75514 4.64577 0 0
7.54568 8.75562 4.64556 0 0
7.57661 8.75971 4.77062 0 0
7.60535 8.75501 4.58948 0 0
7.63577 8.75907 4.71454 0 0
7.66589 8.76271 4.82569 0 0
7.69517 8.76313 4.82549 0 0
7.72429 8.7635 4.8253 0 0
7.75355 8.76504 4.86686 0 0
7.7822 8.76416 4.82491 0 0
7.81107 8.76443 4.82472 0 0
7.84006 8.76549 4.85237 0 0
7.86872 8.76493 4.82435 0 0
7.89768 8.76556 4.83808 0 0
7.92655 8.7654 4.82397 0 0
7.9557 8.76607 4.8377 0 0
7.98503 8.76676 4.85142 0 0
8.01447 8.76749 4.86514 0 0
8.04384 8.76743 4.85103 0 0
8.07348 8.76816 4.86475 0 0
8.10324 8.7693 4.89239 0 0
8.13259 8.76843 4.85044 0 0
8.16213 8.76836 4.83633 0 0
8.19113 8.76589 4.7387 0 0
8.22038 8.7646 4.68284 0 0
8.24969 8.76373 4.64089 0 0
8.27849 8.76086 4.52935 0 0
8.30828 8.7628 4.58482 0 0
8.33757 8.76276 4.57071 0 0
8.36667 8.76237 4.54268 0 0
8.39576 8.76242 4.52856 0 0
8.42481 8.76296 4.52836 0 0
8.45322 8.7612 4.44465 0 0
8.48111 8.75798 4.30527 0 0
8.50984 8.75925 4.31898 0 0
8.53833 8.76018 4.31878 0 0
8.56686 8.76193 4.34641 0 0
8.59501 8.76248 4.33228 0 0
8.62256 8.76098 4.24857 0 0
8.65061 8.76225 4.26229 0 0
8.6782 8.76181 4.22034 0 0
8.70584 8.76208 4.20622 0 0
8.7332 8.76143 4.16428 0 0
8.76047 8.76064 4.12234 0 0
8.78781 8.76051 4.10824 0 0
8.81496 8.75981 4.08023 0 0
8.84223 8.75971 4.08006 0 0
8.86962 8.76021 4.10773 0 0
8.89633 8.75767 4.03799 0 0
8.92332 8.75653 4.02392 0 0
8.95013 8.75431 3.98202 0 0
8.97753 8.75462 4.03756 0 0
9.00403 8.75066 3.95393 0 0
9.03076 8.74765 3.91206 0 0
9.05746 8.74442 3.87019 0 0
9.11141 8.74007 3.8839 0 0
9.13783 8.73539 3.81422 0 0
9.16475 8.73293 3.82805 0 0
9.19163 8.73031 3.84189 0 0
9.21838 8.72714 3.84181 0 0
9.24492 8.72306 3.8139 0 0
9.27173 8.72049 3.84166 0 0
9.29817 8.71624 3.81376 0 0
9.32472 8.71276 3.81369 0 0
