4.19919 4.91657 5.43638 0 0
4.25159 4.9078 5.55385 0 0
4.29643 4.8999 5.63024 0 0
4.41379 4.88331 6.08961 0 0
4.36085 4.88696 5.64614 0 0
4.38815 4.88103 5.62667 0 0
4.41045 4.87567 5.57982 0 0
4.43808 4.86966 5.56029 0 0
4.47102 4.86301 5.5681 0 0
4.49636 4.85724 5.53484 0 0
4.5244 4.85116 5.51523 0 0
4.54741 4.84566 5.46824 0 0
4.57053 4.84015 5.42123 0 0
4.59892 4.83399 5.40156 0 0
4.63 4.82753 5.39554 0 0
4.65083 4.82228 5.3348 0 0
4.67175 4.81702 5.27404 0 0
4.69016 4.81207 5.19958 0 0
4.73704 4.80372 5.27558 0 0
4.74785 4.79967 5.16006 0 0
4.78195 4.79285 5.16764 0 0
4.81609 4.78601 5.17521 0 0
4.84253 4.78009 5.14174 0 0
4.86127 4.77509 5.06722 0 0
5.03243 4.75193 5.79975 0 0
4.92463 4.76196 5.05496 0 0
4.94342 4.75693 4.98043 0 0
4.9777 4.75005 4.98798 0 0
4.9939 4.7453 4.89977 0 0
5.03073 4.73811 4.921 0 0
5.05722 4.73214 4.88752 0 0
5.08881 4.72554 4.8814 0 0
5.11779 4.71925 4.86162 0 0
5.13897 4.71387 4.8008 0 0
5.16785 4.70756 4.78103 0 0
5.20441 4.70032 4.80231 0 0
5.228 4.69461 4.75521 0 0
5.2567 4.68826 4.73547 0 0
5.28791 4.6816 4.72943 0 0
5.32422 4.67433 4.75076 0 0
5.35013 4.66829 4.71738 0 0
5.37601 4.66225 4.68401 0 0
5.40442 4.65594 4.66433 0 0
5.4354 4.64935 4.65833 0 0
5.46379 4.64313 4.63866 0 0
5.49476 4.63664 4.63267 0 0
5.52059 4.63083 4.59931 0 0
5.54898 4.62475 4.57964 0 0
5.57478 4.61901 4.54629 0 0
5.60314 4.61298 4.52663 0 0
5.6366 4.60632 4.53433 0 0
5.66743 4.59996 4.52837 0 0
5.69304 4.5942 4.49505 0 0
5.71857 4.58842 4.46176 0 0
5.75436 4.58139 4.48319 0 0
5.78489 4.57495 4.47728 0 0
5.82309 4.56759 4.51242 0 0
5.8457 4.56208 4.4655 0 0
5.87856 4.55538 4.47332 0 0
5.90098 4.54997 4.42645 0 0
5.93883 4.54279 4.46166 0 0
5.96107 4.53753 4.41482 0 0
5.98841 4.53173 4.39535 0 0
6.02604 4.52476 4.43061 0 0
6.04809 4.51966 4.38381 0 0
6.0779 4.51362 4.37805 0 0
6.12576 4.50542 4.46804 0 0
6.14263 4.50087 4.39388 0 0
6.19312 4.49227 4.49755 0 0
6.24774 4.48044 4.45862 0 0
6.2726 4.47474 4.42545 0 0
6.31047 4.46745 4.46066 0 0
6.33297 4.46196 4.41376 0 0
6.39397 4.44911 4.40195 0 0
6.43767 4.44117 4.46439 0 0
6.4661 4.43512 4.44471 0 0
6.51024 4.42725 4.50707 0 0
6.54424 4.42059 4.51467 0 0
6.57842 4.41391 4.52224 0 0
6.60242 4.40842 4.47507 0 0
6.64206 4.40101 4.50993 0 0
6.74876 4.3799 4.54601 0 0
6.81089 4.3666 4.5198 0 0
6.83561 4.36065 4.47248 0 0
6.89139 4.35101 4.58929 0 0
6.90589 4.34631 4.48723 0 0
6.94888 4.33829 4.53563 0 0
7.06512 4.31629 4.6124 0 0
7.10296 4.30912 4.63344 0 0
7.19132 4.29323 4.74396 0 0
7.30893 4.2765 5.1891 0 0
7.24815 4.28095 4.69043 0 0
7.43969 4.24386 4.83768 0 0
7.80365 4.18963 6.10005 0 0
7.69744 4.19457 5.0572 0 0
7.82106 4.16958 5.08999 0 0
7.89982 4.15513 5.20236 0 0
8.02811 4.13738 5.7305 0 0
8.00538 4.13533 5.30954 0 0
8.25654 4.09746 5.58725 0 0
8.47731 4.07044 5.85678 0 0
8.59451 4.05575 6.03274 0 0
8.62652 4.05158 6.05495 0 0
9.07818 3.99314 6.57781 0 0
2.14201 5.43531 5.02861 0 0
2.1684 5.42746 5.02345 0 0
2.19491 5.41962 5.01826 0 0
2.21896 5.41215 4.99938 0 0
2.24567 5.40436 4.99416 0 0
2.27513 5.39631 5.00259 0 0
2.30469 5.38831 5.01101 0 0
2.32921 5.38093 4.99203 0 0
2.35643 5.37328 4.98672 0 0
2.38122 5.36595 4.9677 0 0
2.41127 5.35805 4.97602 0 0
2.44146 5.35016 4.98432 0 0
2.47176 5.34227 4.99259 0 0
2.49962 5.33471 4.98716 0 0
2.57631 5.31715 5.08568 0 0
2.60448 5.30962 5.08019 0 0
2.63011 5.30243 5.06101 0 0
2.69705 5.28629 5.1047 0 0
2.73832 5.27737 5.16758 0 0
2.78475 5.26788 5.25781 0 0
2.8208 5.25967 5.29334 0 0
2.84645 5.25277 5.27417 0 0
2.87458 5.24562 5.26869 0 0
2.90519 5.23821 5.27692 0 0
2.93048 5.23149 5.25782 0 0
2.96592 5.22361 5.29347 0 0
2.9908 5.21703 5.27445 0 0
3.24132 5.18011 6.30351 0 0
3.17501 5.18448 5.80588 0 0
3.32309 5.15993 6.30179 0 0
3.20941 5.17002 5.55811 0 0
3.22979 5.16417 5.52578 0 0
3.24991 5.15837 5.4935 0 0
3.26981 5.1526 5.46127 0 0
3.29981 5.14564 5.4838 0 0
3.32191 5.13965 5.46532 0 0
3.33352 5.13492 5.39215 0 0
3.36568 5.12776 5.42843 0 0
3.37964 5.12279 5.36899 0 0
3.4039 5.11662 5.36427 0 0
3.43068 5.1102 5.37325 0 0
3.4523 5.10443 5.35486 0 0
3.47394 5.09875 5.33647 0 0
3.48273 5.09465 5.24968 0 0
3.52259 5.08695 5.32702 0 0
3.54447 5.08149 5.30859 0 0
3.58974 5.07333 5.41325 0 0
3.59383 5.07021 5.29902 0 0
3.62134 5.0644 5.30786 0 0
3.66195 5.05713 5.38507 0 0
3.6821 5.05237 5.35282 0 0
3.71275 5.04642 5.37524 0 0
3.73327 5.04174 5.34291 0 0
3.75657 5.03676 5.32423 0 0
3.78783 5.03087 5.34654 0 0
3.82703 5.02405 5.40985 0 0
3.84833 5.01935 5.37738 0 0
3.88533 5.01279 5.42694 0 0
3.90186 5.00867 5.36703 0 0
3.94701 5.00112 5.45755 0 0
3.97686 4.99538 5.46596 0 0
4.00174 4.99021 5.44697 0 0
4.02941 4.98468 5.44162 0 0
4.05472 4.9794 5.42255 0 0
4.08799 4.97313 5.44447 0 0
4.11113 4.96802 5.41164 0 0
4.18648 4.95419 5.49632 0 0
4.21802 4.94793 5.50439 0 0
4.2756 4.93852 5.64922 0 0
4.31014 4.93181 5.67089 0 0
4.36037 4.92319 5.7746 0 0
4.36685 4.91974 5.64574 0 0
4.39679 4.91348 5.63994 0 0
4.4217 4.90779 5.60676 0 0
4.45195 4.90145 5.60091 0 0
4.55209 4.88679 5.96436 0 0
4.48705 4.89177 5.45233 0 0
4.53064 4.88382 5.51479 0 0
4.55369 4.8783 5.46779 0 0
4.58201 4.87217 5.44813 0 0
4.60269 4.86694 5.38741 0 0
4.62091 4.862 5.31299 0 0
4.64695 4.85613 5.2796 0 0
4.68082 4.84934 5.28722 0 0
4.71219 4.84284 5.28115 0 0
4.73589 4.83724 5.23403 0 0
4.75964 4.83165 5.1869 0 0
4.79636 4.82451 5.20815 0 0
4.81505 4.81951 5.13364 0 0
4.85187 4.81236 5.15488 0 0
4.86805 4.80764 5.06667 0 0
4.88425 4.80292 4.97846 0 0
4.93147 4.79451 5.0544 0 0
4.95801 4.78856 5.02091 0 0
4.98197 4.7829 4.97374 0 0
5.01625 4.77602 4.98128 0 0
5.02723 4.77191 4.86573 0 0
5.06399 4.76474 4.88697 0 0
5.08779 4.75911 4.83983 0 0
5.1167 4.75286 4.82006 0 0
5.1507 4.74599 4.82765 0 0
5.1795 4.73973 4.8079 0 0
5.20563 4.73376 4.77449 0 0
5.23946 4.72686 4.78212 0 0
5.26546 4.72085 4.74872 0 0
5.29141 4.71484 4.71534 0 0
5.31729 4.70881 4.68197 0 0
5.35088 4.70185 4.68965 0 0
5.37408 4.69614 4.64262 0 0
5.39985 4.69014 4.60927 0 0
5.43337 4.68325 4.61696 0 0
5.46174 4.67704 4.59729 0 0
5.49531 4.67027 4.60497 0 0
5.52892 4.66357 4.61265 0 0
5.54965 4.65845 4.55192 0 0
5.58329 4.65183 4.5596 0 0
5.61175 4.64582 4.53991 0 0
5.64016 4.63981 4.52024 0 0
5.65818 4.63501 4.44586 0 0
5.70455 4.62679 4.52196 0 0
5.73018 4.621 4.48864 0 0
5.76606 4.61396 4.51006 0 0
5.78635 4.60872 4.44941 0 0
5.82464 4.60133 4.48454 0 0
5.85249 4.59517 4.46496 0 0
5.87508 4.58965 4.41806 0 0
5.91565 4.58206 4.46692 0 0
5.94321 4.5761 4.44741 0 0
5.96808 4.57055 4.41424 0 0
6.00061 4.56418 4.42213 0 0
6.03308 4.55787 4.43003 0 0
6.05516 4.55281 4.38322 0 0
6.08754 4.54652 4.39114 0 0
6.11474 4.54081 4.3717 0 0
6.16261 4.5326 4.46169 0 0
6.17692 4.52832 4.37385 0 0
6.21968 4.52062 4.43647 0 0
6.23667 4.51591 4.36229 0 0
6.26924 4.50929 4.37017 0 0
6.31742 4.50076 4.46009 0 0
6.35021 4.49404 4.46792 0 0
6.37282 4.48852 4.42101 0 0
6.40079 4.48238 4.40141 0 0
6.45223 4.47353 4.50489 0 0
6.47031 4.46874 4.4305 0 0
6.49121 4.46369 4.36975 0 0
6.54073 4.45524 4.45942 0 0
6.58782 4.44709 4.53539 0 0
6.60407 4.44255 4.44717 0 0
6.63856 4.4358 4.45468 0 0
6.67316 4.42896 4.46217 0 0
6.70787 4.42204 4.46963 0 0
6.75043 4.41413 4.51811 0 0
6.78273 4.40736 4.51186 0 0
6.80995 4.40116 4.47823 0 0
6.84758 4.39367 4.49931 0 0
6.8801 4.38679 4.49301 0 0
6.92301 4.37868 4.54142 0 0
6.95825 4.37158 4.54878 0 0
6.99614 4.36432 4.56981 0 0
7.10468 4.34355 4.60554 0 0
7.27836 4.31215 4.81299 0 0
7.31301 4.30523 4.82046 0 0
7.37392 4.2923 4.7945 0 0
7.46227 4.276 4.91918 0 0
7.60673 4.24783 5.01883 0 0
7.63103 4.24235 4.98577 0 0
7.67054 4.23507 5.03484 0 0
7.70979 4.22782 5.08396 0 0
7.77978 4.2169 5.29728 0 0
7.90963 4.18853 5.21543 0 0
8.09378 4.16171 5.88873 0 0
8.03737 4.16398 5.28997 0 0
8.81659 4.0637 6.72801 0 0
8.78119 4.06758 6.39462 0 0
8.78701 4.06658 6.28011 0 0
8.98782 4.04066 6.48256 0 0
2.14678 5.46402 5.02835 0 0
2.17316 5.45618 5.02319 0 0
2.19965 5.44836 5.01801 0 0
2.22109 5.44119 4.98546 0 0
2.2798 5.4251 5.00236 0 0
2.30416 5.41771 4.98342 0 0
2.33381 5.40974 4.99181 0 0
2.35844 5.40241 4.97282 0 0
2.38577 5.39479 4.96749 0 0
2.41579 5.3869 4.97582 0 0
2.44337 5.37933 4.97044 0 0
2.47365 5.37148 4.97872 0 0
2.50404 5.36364 4.98698 0 0
2.54747 5.3543 5.06361 0 0
2.5781 5.3465 5.07182 0 0
2.59591 5.34029 5.01163 0 0
2.63706 5.33135 5.07452 0 0
2.66791 5.32366 5.0827 0 0
2.7014 5.31572 5.10454 0 0
2.74783 5.3063 5.19478 0 0
2.77361 5.29939 5.17558 0 0
2.79933 5.29254 5.1564 0 0
2.85085 5.28268 5.27401 0 0
2.88159 5.27534 5.28221 0 0
2.91739 5.26746 5.3178 0 0
2.93496 5.26178 5.25766 0 0
2.96268 5.25495 5.25227 0 0
2.99279 5.24786 5.2606 0 0
3.11686 5.22624 5.61937 0 0
3.17979 5.21535 5.80567 0 0
3.30444 5.19716 6.32032 0 0
3.32545 5.19131 6.28788 0 0
3.21447 5.20119 5.55785 0 0
3.37959 5.17823 6.29153 0 0
3.29067 5.18222 5.54304 0 0
3.32746 5.17131 5.46498 0 0
3.33917 5.16668 5.39179 0 0
3.37141 5.15963 5.42807 0 0
3.3958 5.15355 5.42333 0 0
3.41495 5.14813 5.39124 0 0
3.44183 5.14183 5.4002 0 0
3.45834 5.13681 5.35445 0 0
3.47748 5.13155 5.32237 0 0
3.53138 5.11938 5.34026 0 0
3.55847 5.1134 5.34918 0 0
3.59086 5.10689 5.38544 0 0
3.61563 5.10136 5.38064 0 0
3.64058 5.0959 5.37581 0 0
3.66054 5.0911 5.34358 0 0
3.69875 5.08419 5.40708 0 0
3.71391 5.08007 5.34743 0 0
3.73442 5.07536 5.31511 0 0
3.81218 5.06168 5.44185 0 0
3.82552 5.05789 5.36838 0 0
3.84679 5.05319 5.33591 0 0
3.89927 5.04477 5.46755 0 0
3.90543 5.04186 5.35293 0 0
3.94021 5.03557 5.38874 0 0
3.98036 5.02859 5.45187 0 0
4.01038 5.02282 5.46024 0 0
4.03544 5.01763 5.44122 0 0
4.06588 5.01175 5.44951 0 0
4.08363 5.00733 5.38937 0 0
4.11967 5.0007 5.42494 0 0
4.17402 4.99183 5.55621 0 0
4.18468 4.98808 5.4549 0 0
4.21624 4.9818 5.46297 0 0
4.28158 4.97143 5.64883 0 0
4.34315 4.95881 5.65109 0 0
4.37291 4.95256 5.64533 0 0
4.40287 4.94627 5.63953 0 0
4.433 4.93994 5.6337 0 0
4.45811 4.9342 5.60048 0 0
4.4808 4.92873 5.55355 0 0
4.48813 4.92508 5.42453 0 0
4.52142 4.91836 5.43226 0 0
4.55743 4.9113 5.45365 0 0
4.58579 4.90515 5.43398 0 0
4.61427 4.89899 5.41429 0 0
4.62993 4.89436 5.32619 0 0
4.65085 4.88911 5.26543 0 0
4.68477 4.8823 5.27304 0 0
4.71362 4.8761 5.25328 0 0
4.74251 4.86989 5.23351 0 0
4.77147 4.86368 5.21373 0 0
4.80049 4.85745 5.19394 0 0
4.82697 4.85153 5.16046 0 0
4.85607 4.84528 5.14065 0 0
4.88261 4.83934 5.10715 0 0
4.91177 4.83308 5.08734 0 0
4.9435 4.82651 5.08119 0 0
4.95974 4.82179 4.99298 0 0
4.99405 4.81491 5.00052 0 0
5.02055 4.80897 4.96704 0 0
5.04443 4.80335 4.91988 0 0
5.07857 4.79652 4.92745 0 0
5.09973 4.79123 4.86664 0 0
5.12082 4.78596 4.80585 0 0
5.15992 4.77853 4.84082 0 0
5.18087 4.77324 4.78005 0 0
5.2121 4.76671 4.77401 0 0
5.23808 4.76078 4.74062 0 0
5.26917 4.7542 4.7346 0 0
5.29503 4.74821 4.70123 0 0
5.32858 4.7413 4.70892 0 0
5.35691 4.73498 4.68925 0 0
5.3852 4.72866 4.66959 0 0
5.41349 4.72236 4.64994 0 0
5.43403 4.71702 4.58924 0 0
5.46496 4.71051 4.58326 0 0
5.49597 4.70407 4.57726 0 0
5.52963 4.69742 4.58492 0 0
5.5556 4.69174 4.55155 0 0
5.58676 4.68547 4.54552 0 0
5.62047 4.6789 4.55318 0 0
5.64639 4.67322 4.51981 0 0
5.67485 4.6672 4.50013 0 0
5.71098 4.66023 4.5215 0 0
5.73928 4.65413 4.50184 0 0
5.76749 4.648 4.4822 0 0
5.80079 4.64121 4.48994 0 0
5.81332 4.63686 4.38826 0 0
5.85416 4.62913 4.43707 0 0
5.87941 4.62327 4.40382 0 0
5.91746 4.61593 4.43899 0 0
5.94764 4.60965 4.43315 0 0
5.96739 4.60474 4.37261 0 0
6.01028 4.59719 4.43521 0 0
6.02726 4.59277 4.36104 0 0
6.07259 4.585 4.43735 0 0
6.08173 4.58151 4.32216 0 0
6.1296 4.5734 4.41215 0 0
6.16197 4.56706 4.42007 0 0
6.18401 4.56188 4.37327 0 0
6.22159 4.5548 4.40853 0 0
6.25923 4.54765 4.44378 0 0
6.2892 4.54135 4.43798 0 0
6.31151 4.53591 4.39113 0 0
6.34168 4.52948 4.38529 0 0
6.37201 4.52302 4.37941 0 0
6.41285 4.51534 4.42822 0 0
6.44617 4.50863 4.43596 0 0
6.47459 4.50265 4.41628 0 0
6.50066 4.49704 4.38288 0 0
6.5347 4.4905 4.39048 0 0
6.60581 4.47696 4.41927 0 0
6.62479 4.47207 4.34471 0 0
6.67747 4.46312 4.44795 0 0
6.72767 4.45438 4.53749 0 0
6.74439 4.44956 4.44918 0 0
6.77929 4.44251 4.45661 0 0
6.8091 4.436 4.43666 0 0
6.84673 4.42854 4.45773 0 0
6.87666 4.42195 4.43776 0 0
7.15717 4.36965 4.66708 0 0
7.3252 4.33885 4.84726 0 0
7.39389 4.32503 4.86233 0 0
7.5307 4.29732 4.90674 0 0
7.56859 4.29011 4.94194 0 0
7.71442 4.26227 5.06969 0 0
7.90402 4.22412 5.14642 0 0
8.02777 4.20228 5.34934 0 0
8.0551 4.19695 5.34406 0 0
8.13666 4.18544 5.62604 0 0
8.41549 4.14806 5.89854 0 0
8.63894 4.12108 6.03999 0 0
8.66315 4.11798 6.02118 0 0
8.69243 4.11426 6.02974 0 0
8.71904 4.11081 6.02464 0 0
8.86796 4.09218 6.37879 0 0
9.00305 4.07402 6.52295 0 0
9.04174 4.06862 6.58639 0 0
9.12105 4.0562 6.58531 0 0
2.15419 5.49241 5.04176 0 0
2.17797 5.48491 5.02293 0 0
2.20185 5.47742 5.00408 0 0
2.23359 5.46904 5.02624 0 0
2.26028 5.4613 5.02103 0 0
2.28708 5.45359 5.0158 0 0
2.30883 5.44654 4.98318 0 0
2.33588 5.43887 4.9779 0 0
2.36562 5.43094 4.98628 0 0
2.39291 5.42334 4.98096 0 0
2.4229 5.41547 4.98929 0 0
2.44787 5.40823 4.97024 0 0
2.47811 5.40041 4.97853 0 0
2.52397 5.39078 5.06887 0 0
2.57731 5.37621 5.04429 0 0
2.6106 5.36822 5.06617 0 0
2.64913 5.35968 5.1154 0 0
2.67484 5.35271 5.09622 0 0
2.70574 5.34519 5.10438 0 0
2.74186 5.33711 5.1399 0 0
2.79089 5.32755 5.24382 0 0
2.82438 5.31992 5.26567 0 0
2.88604 5.30543 5.28205 0 0
2.91411 5.29859 5.27659 0 0
2.9369 5.29243 5.24381 0 0
2.97242 5.2848 5.27945 0 0
2.99743 5.27846 5.26041 0 0
3.02993 5.27127 5.28246 0 0
3.28021 5.23493 6.31157 0 0
3.20346 5.24081 5.75925 0 0
3.33308 5.22217 6.3013 0 0
3.35908 5.21585 6.29625 0 0
3.26342 5.22404 5.64834 0 0
3.26824 5.22026 5.53395 0 0
3.28833 5.21469 5.50169 0 0
3.32371 5.20733 5.55154 0 0
3.34341 5.20185 5.51935 0 0
3.3552 5.19733 5.44615 0 0
3.37977 5.19131 5.44137 0 0
3.40425 5.18534 5.43662 0 0
3.42608 5.17974 5.4182 0 0
3.44268 5.17479 5.37243 0 0
3.46703 5.16899 5.3677 0 0
3.49912 5.16231 5.40401 0 0
3.52093 5.15693 5.3856 0 0
3.55054 5.15069 5.40821 0 0
3.56477 5.14636 5.34874 0 0
3.60235 5.13932 5.41235 0 0
3.62197 5.13446 5.38019 0 0
3.6521 5.12842 5.40271 0 0
3.66431 5.12456 5.32945 0 0
3.71028 5.11673 5.43398 0 0
3.72285 5.1129 5.36065 0 0
3.75885 5.10631 5.4104 0 0
3.77695 5.1019 5.36436 0 0
3.81333 5.09534 5.41404 0 0
3.86339 5.08495 5.39018 0 0
3.89517 5.07897 5.41239 0 0
3.92972 5.07269 5.44825 0 0
3.96706 5.06607 5.49774 0 0
3.98133 5.06218 5.42409 0 0
4.02165 5.05519 5.48719 0 0
4.04152 5.05061 5.44081 0 0
4.07451 5.04445 5.46279 0 0
4.10257 5.03882 5.45737 0 0
4.16442 5.02912 5.62973 0 0
4.26817 5.01188 5.86487 0 0
4.29198 5.00648 5.83191 0 0
4.3186 5.00069 5.81258 0 0
4.33252 4.99638 5.72481 0 0
4.35955 4.99045 5.7054 0 0
4.38161 4.9851 5.65859 0 0
4.40902 4.97908 5.63911 0 0
4.44174 4.97242 5.64695 0 0
4.46174 4.96727 5.58637 0 0
4.47671 4.96271 5.49839 0 0
4.50733 4.95629 5.49247 0 0
4.53033 4.95078 5.44548 0 0
4.54829 4.94586 5.37111 0 0
4.58445 4.93879 5.39247 0 0
4.61814 4.932 5.40013 0 0
4.64676 4.92584 5.38041 0 0
4.66255 4.92119 5.29228 0 0
4.69393 4.91469 5.28621 0 0
4.72022 4.90879 5.25277 0 0
4.744 4.90321 5.20563 0 0
4.77558 4.89668 5.19952 0 0
4.79689 4.89137 5.13868 0 0
4.83891 4.8836 5.18727 0 0
4.85513 4.8789 5.09906 0 0
4.88171 4.87295 5.06556 0 0
4.91089 4.8667 5.04574 0 0
4.93233 4.86135 4.98487 0 0
4.96151 4.8551 4.96505 0 0
4.98807 4.84916 4.93155 0 0
5.02232 4.8423 4.9391 0 0
5.05393 4.83579 4.93299 0 0
5.07512 4.83054 4.87217 0 0
5.10397 4.82439 4.85241 0 0
5.13017 4.81856 4.81899 0 0
5.16145 4.81211 4.81294 0 0
5.1875 4.80628 4.77954 0 0
5.21606 4.80011 4.75984 0 0
5.24971 4.7933 4.7675 0 0
5.27299 4.78771 4.72046 0 0
5.30134 4.78147 4.70079 0 0
5.33224 4.77489 4.69481 0 0
5.35275 4.76952 4.63412 0 0
5.38873 4.76231 4.65551 0 0
5.41693 4.75602 4.63587 0 0
5.44517 4.74975 4.61622 0 0
5.48383 4.74233 4.65128 0 0
5.49935 4.73778 4.5632 0 0
5.53307 4.73118 4.57086 0 0
5.56171 4.72526 4.55114 0 0
5.59036 4.71936 4.53143 0 0
5.62934 4.7122 4.56643 0 0
5.65277 4.70687 4.51936 0 0
5.68131 4.70089 4.49967 0 0
5.71235 4.69454 4.49366 0 0
5.74074 4.68844 4.47399 0 0
5.76645 4.68261 4.44066 0 0
5.79465 4.67644 4.42102 0 0
5.83566 4.66868 4.4698 0 0
5.85591 4.66338 4.40916 0 0
5.89154 4.65624 4.43062 0 0
5.91415 4.65071 4.3837 0 0
5.95989 4.64255 4.45992 0 0
5.98482 4.63707 4.42674 0 0
6.00965 4.63172 4.39359 0 0
6.03698 4.62612 4.37413 0 0
6.06942 4.61994 4.38204 0 0
6.10956 4.6128 4.43099 0 0
6.13934 4.60686 4.42523 0 0
6.1562 4.60238 4.35108 0 0
6.20149 4.59447 4.42739 0 0
6.22098 4.58956 4.36691 0 0
6.24827 4.58366 4.34745 0 0
6.28598 4.57644 4.38269 0 0
6.31344 4.5704 4.36319 0 0
6.34101 4.5643 4.34367 0 0
6.3868 4.556 4.41988 0 0
6.41986 4.54924 4.42766 0 0
6.45315 4.54252 4.4354 0 0
6.48415 4.53628 4.4294 0 0
6.5154 4.5301 4.42336 0 0
6.54941 4.52358 4.43097 0 0
6.58361 4.51704 4.43854 0 0
6.64208 4.50495 4.39888 0 0
6.6715 4.49877 4.37901 0 0
6.93094 4.46518 5.57654 0 0
6.75652 4.48311 4.47599 0 0
6.78624 4.47669 4.45606 0 0
6.82122 4.4696 4.46347 0 0
6.86143 4.46186 4.49822 0 0
6.89653 4.4547 4.50561 0 0
6.92396 4.44848 4.47194 0 0
6.95146 4.44236 4.43826 0 0
6.98936 4.43516 4.45929 0 0
7.02473 4.42835 4.46663 0 0
7.11345 4.41267 4.57709 0 0
7.17606 4.40001 4.55081 0 0
7.22656 4.39135 4.64029 0 0
7.26141 4.3845 4.64773 0 0
7.4014 4.35664 4.69154 0 0
7.60804 4.32636 5.44556 0 0
7.55332 4.33007 4.98825 0 0
7.88366 4.26429 5.15116 0 0
7.92171 4.25724 5.20051 0 0
8.11987 4.22154 5.34655 0 0
8.64392 4.15628 6.02567 0 0
8.67073 4.15296 6.02053 0 0
8.70003 4.1493 6.02909 0 0
8.72923 4.1456 6.03767 0 0
8.85905 4.12988 6.57974 0 0
8.87074 4.12721 6.20896 0 0
8.97957 4.11292 6.49991 0 0
2.15649 5.52145 5.02781 0 0
2.18799 5.51305 5.05002 0 0
2.21442 5.50528 5.04485 0 0
2.2384 5.49782 5.02598 0 0
2.26503 5.4901 5.02078 0 0
2.28923 5.48273 5.00187 0 0
2.31871 5.47477 5.0103 0 0
2.34311 5.46744 4.99135 0 0
2.36767 5.46014 4.97238 0 0
2.39751 5.45224 4.98074 0 0
2.42745 5.44437 4.98908 0 0
2.48258 5.42939 4.97833 0 0
2.50775 5.42225 4.95925 0 0
2.5817 5.40533 5.04412 0 0
2.61496 5.39745 5.06601 0 0
2.64059 5.39051 5.04684 0 0
2.70495 5.37531 5.07686 0 0
2.73073 5.36858 5.05767 0 0
2.77203 5.36007 5.12055 0 0
2.81589 5.35133 5.19711 0 0
2.85712 5.34296 5.26001 0 0
2.88535 5.33619 5.25452 0 0
2.91864 5.32886 5.27642 0 0
2.94663 5.32223 5.27098 0 0
2.98221 5.31472 5.30662 0 0
3.0047 5.30881 5.27389 0 0
3.02955 5.30267 5.25489 0 0
3.28256 5.26626 6.29766 0 0
3.3118 5.25965 6.30616 0 0
3.33303 5.25401 6.27368 0 0
3.35913 5.24781 6.26861 0 0
3.26872 5.25547 5.64804 0 0
3.28397 5.25058 5.58836 0 0
3.30157 5.24542 5.5424 0 0
3.33188 5.23877 5.56487 0 0
3.34133 5.23462 5.47795 0 0
3.37387 5.22774 5.51417 0 0
3.39854 5.22185 5.50938 0 0
3.4076 5.21785 5.42254 0 0
3.43465 5.21174 5.43147 0 0
3.46424 5.2054 5.45409 0 0
3.47316 5.20155 5.36728 0 0
3.50532 5.19501 5.40358 0 0
3.52975 5.18945 5.39884 0 0
3.54651 5.18485 5.35305 0 0
3.57368 5.17908 5.36196 0 0
3.60095 5.17334 5.37086 0 0
3.62578 5.16794 5.36605 0 0
3.64041 5.16377 5.3065 0 0
3.68106 5.15655 5.3837 0 0
3.70377 5.15148 5.36512 0 0
3.72409 5.14671 5.33283 0 0
3.77043 5.13887 5.43729 0 0
3.78851 5.13442 5.39126 0 0
3.82229 5.12812 5.42726 0 0
3.84334 5.12336 5.39483 0 0
3.88264 5.11645 5.45812 0 0
3.8989 5.1123 5.39826 0 0
3.936 5.10569 5.4478 0 0
3.97329 5.09906 5.49731 0 0
3.99788 5.09395 5.47838 0 0
4.02007 5.08911 5.44573 0 0
4.05024 5.08333 5.45408 0 0
4.07545 5.0781 5.43502 0 0
4.10088 5.07279 5.41593 0 0
4.16531 5.06278 5.60197 0 0
4.1964 5.05667 5.61013 0 0
4.25355 5.04736 5.75504 0 0
4.29546 5.03978 5.81782 0 0
4.32726 5.03335 5.82585 0 0
4.3567 5.02714 5.82015 0 0
4.34761 5.02549 5.60923 0 0
4.39552 5.01702 5.6992 0 0
4.41521 5.0119 5.63868 0 0
4.4454 5.00552 5.63283 0 0
4.45509 5.00158 5.51752 0 0
4.48818 4.99485 5.5253 0 0
4.50592 4.98996 5.45097 0 0
4.5367 4.98352 5.44501 0 0
4.57021 4.97676 5.45271 0 0
4.59607 4.97091 5.41934 0 0
4.62205 4.96505 5.38596 0 0
4.6378 4.96041 5.29784 0 0
4.67429 4.95331 5.31914 0 0
4.69538 4.94804 5.25834 0 0
4.72687 4.94154 5.25225 0 0
4.74553 4.93657 5.17774 0 0
4.77715 4.93004 5.17163 0 0
4.80366 4.92413 5.13814 0 0
4.8328 4.91789 5.11833 0 0
4.86455 4.91135 5.11218 0 0
4.88857 4.90572 5.065 0 0
4.90746 4.90069 4.99045 0 0
4.93924 4.89414 4.9843 0 0
4.96844 4.88789 4.96448 0 0
5.00018 4.88135 4.95834 0 0
5.0267 4.87544 4.92485 0 0
5.05313 4.86957 4.89138 0 0
5.08462 4.86314 4.88529 0 0
5.10309 4.85829 4.81082 0 0
5.13955 4.85129 4.83213 0 0
5.1682 4.84522 4.81241 0 0
5.1916 4.83975 4.76534 0 0
5.22526 4.83305 4.77301 0 0
5.2537 4.82692 4.75333 0 0
5.28208 4.82077 4.73366 0 0
5.3078 4.81489 4.70032 0 0
5.33347 4.80898 4.66699 0 0
5.36684 4.80212 4.67471 0 0
5.39243 4.79618 4.6414 0 0
5.42059 4.78991 4.62177 0 0
5.45135 4.78335 4.61581 0 0
5.48221 4.77686 4.60984 0 0
5.50549 4.77143 4.5628 0 0
5.53929 4.7649 4.57044 0 0
5.56542 4.75936 4.53704 0 0
5.59416 4.7535 4.5173 0 0
5.62545 4.74732 4.51126 0 0
5.64895 4.74202 4.46418 0 0
5.68789 4.73482 4.49918 0 0
5.72159 4.72819 4.50685 0 0
5.74746 4.7224 4.47348 0 0
5.77065 4.71688 4.42646 0 0
5.80664 4.70978 4.44785 0 0
5.82964 4.70419 4.40086 0 0
5.87061 4.69641 4.44965 0 0
5.89339 4.6908 4.4027 0 0
5.9515 4.67828 4.37727 0 0
5.98421 4.67191 4.38512 0 0
6.00906 4.66661 4.35196 0 0
6.04415 4.66011 4.37354 0 0
6.07142 4.65455 4.35409 0 0
6.09866 4.64898 4.33465 0 0
6.1362 4.64212 4.36992 0 0
6.15565 4.63736 4.30945 0 0
6.19061 4.6307 4.33105 0 0
6.22043 4.62458 4.32528 0 0
6.26064 4.61716 4.37421 0 0
6.28283 4.61182 4.32738 0 0
6.31286 4.6055 4.32157 0 0
6.35076 4.5982 4.35677 0 0
6.38105 4.59179 4.3509 0 0
6.47061 4.57308 4.3194 0 0
6.51991 4.56474 4.40912 0 0
6.52808 4.5613 4.27993 0 0
6.59065 4.55137 4.43798 0 0
6.59915 4.54783 4.30873 0 0
6.64911 4.5393 4.39832 0 0
6.69402 4.5313 4.46053 0 0
6.71581 4.52599 4.3996 0 0
6.7377 4.5206 4.33865 0 0
6.7881 4.51176 4.42815 0 0
6.81274 4.50595 4.38085 0 0
6.85813 4.49762 4.44296 0 0
6.88809 4.49114 4.42298 0 0
6.91295 4.4853 4.37563 0 0
6.95855 4.47707 4.4377 0 0
6.99385 4.47016 4.44506 0 0
7.0447 4.46148 4.53447 0 0
7.07229 4.45563 4.50078 0 0
7.14541 4.44176 4.52919 0 0
7.16505 4.43681 4.4545 0 0
7.21297 4.42846 4.5303 0 0
7.40076 4.39231 4.64994 0 0
7.65908 4.35594 5.67753 0 0
7.61649 4.35006 4.79251 0 0
7.76286 4.3246 5.09029 0 0
7.8735 4.30352 5.21066 0 0
8.14679 4.26844 6.50476 0 0
7.98685 4.28029 5.20291 0 0
8.67834 4.18805 6.01989 0 0
8.82851 4.1692 6.23205 0 0
8.88094 4.16184 6.22199 0 0
2.16399 5.54996 5.04121 0 0
2.18772 5.54247 5.02238 0 0
2.21153 5.53502 5.00354 0 0
2.24323 5.52668 5.02572 0 0
2.27244 5.51868 5.0342 0 0
2.29659 5.5113 5.0153 0 0
2.32345 5.50365 5.01005 0 0
2.35041 5.49603 5.00479 0 0
2.37492 5.48875 4.98583 0 0
2.39697 5.4818 4.95316 0 0
2.43461 5.47305 5.00255 0 0
2.45174 5.46678 4.94248 0 0
2.48966 5.4581 4.99182 0 0
2.51481 5.45101 4.97273 0 0
2.54522 5.44335 4.98099 0 0
2.59128 5.43392 5.0713 0 0
2.65271 5.41894 5.08771 0 0
2.68098 5.41187 5.08221 0 0
2.70933 5.40488 5.0767 0 0
2.74287 5.39735 5.09854 0 0
2.77903 5.38958 5.13406 0 0
2.82809 5.38035 5.23798 0 0
2.89505 5.36578 5.2817 0 0
2.91546 5.36011 5.2352 0 0
2.95127 5.35268 5.27079 0 0
2.97917 5.34623 5.26538 0 0
3.00946 5.33953 5.27368 0 0
3.03438 5.33351 5.25467 0 0
3.26314 5.30325 6.31633 0 0
3.29016 5.29703 6.31109 0 0
3.31174 5.29146 6.27854 0 0
3.34081 5.28502 6.28708 0 0
3.36959 5.27861 6.29567 0 0
3.39294 5.27285 6.27696 0 0
3.42118 5.26651 6.28566 0 0
3.44919 5.26024 6.2944 0 0
3.35043 5.26906 5.63292 0 0
3.3548 5.26562 5.51863 0 0
3.40184 5.25431 5.49532 0 0
3.4239 5.24888 5.47686 0 0
3.44329 5.24381 5.44473 0 0
3.46779 5.23819 5.43998 0 0
3.47676 5.23448 5.35316 0 0
3.51672 5.22712 5.43049 0 0
3.54122 5.22167 5.42574 0 0
3.55543 5.21751 5.36627 0 0
3.58521 5.21153 5.38886 0 0
3.63576 5.20311 5.52086 0 0
3.63736 5.20053 5.39294 0 0
3.67009 5.19426 5.42914 0 0
3.68233 5.19043 5.35587 0 0
3.71798 5.1838 5.40569 0 0
3.72797 5.18025 5.31868 0 0
3.77172 5.17268 5.40946 0 0
3.80789 5.16604 5.45918 0 0
3.83907 5.16001 5.4815 0 0
3.84977 5.15645 5.39436 0 0
3.86838 5.15196 5.34822 0 0
3.93627 5.14164 5.56195 0 0
3.94751 5.13808 5.47471 0 0
3.98219 5.13175 5.51053 0 0
3.99899 5.12756 5.45057 0 0
4.03666 5.12089 5.5 0 0
4.06161 5.11572 5.481 0 0
4.14578 5.10122 5.62069 0 0
4.17143 5.09583 5.60155 0 0
4.20767 5.0891 5.63708 0 0
4.26225 5.08007 5.76831 0 0
4.27833 5.07554 5.6943 0 0
4.30758 5.06936 5.68864 0 0
4.33704 5.06311 5.68294 0 0
4.36671 5.05682 5.67719 0 0
4.39658 5.05047 5.67141 0 0
4.39821 5.04748 5.51512 0 0
4.42844 5.04108 5.50927 0 0
4.47691 5.03252 5.59914 0 0
4.49453 5.02763 5.52483 0 0
4.50713 5.02334 5.42314 0 0
4.54313 5.01628 5.44453 0 0
4.56634 5.01076 5.39751 0 0
4.59224 5.0049 5.36414 0 0
4.62084 4.99875 5.34442 0 0
4.65212 4.99227 5.33837 0 0
4.67832 4.9864 5.30495 0 0
4.69687 4.98144 5.23046 0 0
4.71807 4.97618 5.16965 0 0
4.74451 4.97028 5.13618 0 0
4.77357 4.96408 5.11637 0 0
4.80787 4.95725 5.12392 0 0
4.83445 4.95133 5.09042 0 0
4.8559 4.94603 5.02955 0 0
4.88771 4.9395 5.0234 0 0
4.91177 4.93386 4.97621 0 0
4.94358 4.92732 4.97006 0 0
4.97537 4.92079 4.96391 0 0
5.00197 4.91487 4.9304 0 0
5.03107 4.90869 4.91059 0 0
5.06008 4.90255 4.8908 0 0
5.09412 4.89587 4.8984 0 0
5.10998 4.89138 4.81026 0 0
5.14122 4.88508 4.80422 0 0
5.16983 4.87908 4.78451 0 0
5.19835 4.87308 4.76482 0 0
5.2268 4.86705 4.74514 0 0
5.2552 4.861 4.72546 0 0
5.2732 4.85615 4.65109 0 0
5.3118 4.84881 4.68615 0 0
5.33744 4.84297 4.65283 0 0
5.36819 4.83648 4.64688 0 0
5.39891 4.82997 4.64093 0 0
5.42448 4.82406 4.60763 0 0
5.45522 4.81754 4.60168 0 0
5.48345 4.81139 4.58203 0 0
5.51966 4.80447 4.60339 0 0
5.55094 4.79831 4.59734 0 0
5.56421 4.79435 4.49553 0 0
5.60075 4.78762 4.51683 0 0
5.63208 4.78147 4.51077 0 0
5.66079 4.77559 4.49104 0 0
5.69204 4.76932 4.485 0 0
5.71804 4.76363 4.45162 0 0
5.74394 4.75787 4.41825 0 0
5.77493 4.75144 4.41225 0 0
5.80841 4.74465 4.41995 0 0
5.83919 4.73815 4.41399 0 0
5.86729 4.73193 4.39438 0 0
5.89786 4.72542 4.38846 0 0
5.92571 4.71928 4.36889 0 0
5.96118 4.71236 4.39038 0 0
5.99135 4.70627 4.38454 0 0
6.0214 4.70032 4.37874 0 0
6.04361 4.69535 4.33191 0 0
6.07866 4.68886 4.35349 0 0
6.10331 4.68358 4.32037 0 0
6.13828 4.67703 4.34197 0 0
6.17065 4.67075 4.34989 0 0
6.19787 4.66503 4.33045 0 0
6.23285 4.65831 4.35204 0 0
6.26788 4.65153 4.37362 0 0
6.28749 4.64655 4.31311 0 0
6.31493 4.64056 4.29362 0 0
6.33734 4.63516 4.24674 0 0
6.37281 4.62819 4.26824 0 0
6.41105 4.6209 4.30337 0 0
6.43916 4.61489 4.28376 0 0
6.47785 4.60772 4.31881 0 0
6.52195 4.59998 4.38118 0 0
6.5404 4.5953 4.30672 0 0
6.58745 4.5872 4.38269 0 0
6.614 4.5815 4.3492 0 0
6.66136 4.57328 4.42512 0 0
6.69077 4.56714 4.40525 0 0
6.71772 4.56123 4.37168 0 0
6.74736 4.55495 4.35177 0 0
6.77967 4.5483 4.34552 0 0
6.81466 4.54129 4.35293 0 0
6.84972 4.53425 4.36032 0 0
6.88485 4.5272 4.3677 0 0
6.94848 4.51679 4.52554 0 0
6.96825 4.51167 4.45082 0 0
6.9984 4.50537 4.43082 0 0
7.04666 4.497 4.50655 0 0
7.07165 4.49141 4.45919 0 0
7.11212 4.48401 4.4939 0 0
7.18766 4.4698 4.53601 0 0
7.64817 4.39307 5.58121 0 0
7.54181 4.40294 4.85032 0 0
7.58495 4.39504 4.91286 0 0
7.60968 4.38935 4.87972 0 0
7.67801 4.3785 5.07918 0 0
7.93303 4.33734 5.79547 0 0
7.95099 4.33255 5.73527 0 0
7.97456 4.31975 5.24863 0 0
8.0176 4.3124 5.32538 0 0
8.39807 4.25759 6.28698 0 0
8.29119 4.26986 5.57041 0 0
8.31086 4.26724 5.52412 0 0
8.49258 4.24554 5.88617 0 0
8.63215 4.22946 6.02954 0 0
8.71529 4.21963 6.02779 0 0
8.80977 4.20795 6.23646 0 0
8.8 4.20869 6.0399 0 0
9.01791 4.17822 6.47996 0 0
2.16896 5.57878 5.04091 0 0
2.19784 5.5707 5.04945 0 0
2.22164 5.56329 5.03062 0 0
2.24811 5.55557 5.02545 0 0
2.27988 5.54727 5.04761 0 0
2.29624 5.54085 4.98768 0 0
2.32565 5.53291 4.99612 0 0
2.3474 5.52592 4.96351 0 0
2.37962 5.51774 4.98559 0 0
2.41195 5.50959 5.00765 0 0
2.43406 5.50271 4.97497 0 0
2.46407 5.49494 4.9833 0 0
2.49162 5.48752 4.97793 0 0
2.53221 5.47862 5.04094 0 0
2.55485 5.47193 5.00816 0 0
2.5802 5.46502 4.98905 0 0
2.62634 5.45571 5.07934 0 0
2.65194 5.44898 5.06018 0 0
2.69055 5.44077 5.1094 0 0
2.7344 5.42863 5.02998 0 0
2.8145 5.41251 5.14206 0 0
2.85322 5.40469 5.19126 0 0
2.89445 5.39665 5.25416 0 0
2.91751 5.39081 5.22133 0 0
2.95596 5.3832 5.27059 0 0
2.98133 5.37718 5.25149 0 0
3.0117 5.37061 5.25978 0 0
3.03928 5.36441 5.25444 0 0
3.06665 5.35823 5.24913 0 0
3.29525 5.32816 6.31082 0 0
3.3221 5.3221 6.30562 0 0
3.37237 5.31038 6.28169 0 0
3.40097 5.30411 6.29032 0 0
3.42672 5.29818 6.28533 0 0
3.40832 5.29753 6.04783 0 0
3.36131 5.30032 5.65991 0 0
3.4863 5.27988 6.04689 0 0
3.60153 5.26345 6.52083 0 0
3.43251 5.28088 5.49012 0 0
3.45972 5.275 5.49902 0 0
3.47654 5.27042 5.45322 0 0
3.49591 5.26558 5.42111 0 0
3.52044 5.26019 5.41636 0 0
3.54239 5.25515 5.39793 0 0
3.57473 5.24894 5.4342 0 0
3.57872 5.24612 5.32 0 0
3.62155 5.23872 5.41096 0 0
3.65158 5.23282 5.4335 0 0
3.67659 5.22751 5.42866 0 0
3.69916 5.22247 5.41011 0 0
3.72707 5.21676 5.41888 0 0
3.76032 5.2104 5.45498 0 0
3.77825 5.20588 5.40898 0 0
3.80665 5.20012 5.41766 0 0
3.86142 5.18891 5.42124 0 0
3.90585 5.18132 5.51189 0 0
3.92722 5.1765 5.4794 0 0
3.95135 5.17138 5.46055 0 0
3.99116 5.16442 5.52375 0 0
4.01051 5.1599 5.47747 0 0
4.04298 5.15385 5.49955 0 0
4.07048 5.14838 5.49424 0 0
4.11629 5.14071 5.58463 0 0
4.14424 5.13512 5.57922 0 0
4.17762 5.12884 5.60113 0 0
4.20867 5.12271 5.6093 0 0
4.27876 5.11183 5.8226 0 0
4.31294 5.10509 5.84434 0 0
4.31637 5.10195 5.70188 0 0
4.3536 5.09475 5.73721 0 0
4.37039 5.08995 5.66307 0 0
4.40028 5.08358 5.65728 0 0
4.43036 5.0772 5.65146 0 0
4.45802 5.0711 5.63192 0 0
4.46003 5.06806 5.47556 0 0
4.49837 5.06071 5.51068 0 0
4.52651 5.05458 5.49106 0 0
4.54186 5.04998 5.40301 0 0
4.57543 5.04323 5.41069 0 0
4.60912 5.03647 5.41835 0 0
4.61451 5.03308 5.27552 0 0
4.65098 5.026 5.29682 0 0
4.67206 5.02076 5.23603 0 0
4.70097 5.01458 5.21626 0 0
4.74028 5.00718 5.25119 0 0
4.76933 5.00098 5.23139 0 0
4.79327 4.99541 5.18423 0 0
4.81725 4.98983 5.13705 0 0
4.84646 4.98362 5.11722 0 0
4.87309 4.97771 5.08371 0 0
4.88683 4.97335 4.98181 0 0
4.929 4.9656 5.03036 0 0
4.95048 4.96032 4.96949 0 0
4.99004 4.95289 5.00438 0 0
5.01148 4.94761 4.94352 0 0
5.03802 4.94177 4.91003 0 0
5.0722 4.93505 4.91759 0 0
5.09846 4.92936 4.88416 0 0
5.11169 4.92525 4.78235 0 0
5.15067 4.9181 4.81735 0 0
5.18182 4.91186 4.81133 0 0
5.20515 4.90655 4.76429 0 0
5.2284 4.90122 4.71725 0 0
5.26453 4.89433 4.73862 0 0
5.28767 4.88894 4.69161 0 0
5.31592 4.88292 4.67197 0 0
5.35189 4.87593 4.69337 0 0
5.3749 4.87045 4.64638 0 0
5.40304 4.86433 4.62675 0 0
5.4312 4.8582 4.60712 0 0
5.45938 4.85207 4.58749 0 0
5.48767 4.84599 4.56784 0 0
5.53422 4.8379 4.64391 0 0
5.54998 4.8336 4.55579 0 0
5.58133 4.82751 4.54974 0 0
5.60754 4.82203 4.51632 0 0
5.63373 4.81651 4.4829 0 0
5.66506 4.81032 4.47685 0 0
5.69374 4.80439 4.45712 0 0
5.72494 4.79809 4.45109 0 0
5.75088 4.79235 4.41771 0 0
5.78191 4.78594 4.41171 0 0
5.81025 4.77979 4.39205 0 0
5.84365 4.773 4.39976 0 0
5.87178 4.76682 4.38014 0 0
5.8972 4.76098 4.34686 0 0
5.938 4.75336 4.39568 0 0
5.97349 4.74647 4.41717 0 0
5.99078 4.74189 4.34293 0 0
6.02086 4.73588 4.33712 0 0
6.04826 4.73025 4.31764 0 0
6.08591 4.72343 4.3529 0 0
6.11059 4.71814 4.31977 0 0
6.14556 4.71158 4.34137 0 0
6.17536 4.7056 4.33561 0 0
6.1974 4.7005 4.28881 0 0
6.24531 4.69227 4.37879 0 0
6.26226 4.68767 4.30462 0 0
6.2922 4.68148 4.29883 0 0
6.31966 4.67556 4.27934 0 0
6.36274 4.66774 4.3419 0 0
6.39304 4.66144 4.33603 0 0
6.42612 4.65483 4.34381 0 0
6.4594 4.64825 4.35155 0 0
6.47482 4.64384 4.2635 0 0
6.52403 4.63545 4.35323 0 0
6.55538 4.62922 4.34717 0 0
6.59207 4.62233 4.36844 0 0
6.62117 4.61631 4.34863 0 0
6.64785 4.61054 4.31512 0 0
6.67466 4.60471 4.28158 0 0
6.71708 4.59697 4.33008 0 0
6.76738 4.58825 4.41961 0 0
6.79194 4.58254 4.37232 0 0
6.82952 4.57527 4.39341 0 0
6.86202 4.56859 4.38712 0 0
6.88426 4.56313 4.3261 0 0
6.93238 4.55461 4.40187 0 0
6.96766 4.54766 4.40922 0 0
7.00556 4.54045 4.43025 0 0
7.0538 4.53206 4.50599 0 0
7.07364 4.52707 4.43127 0 0
7.11926 4.51903 4.49334 0 0
7.14674 4.51314 4.45967 0 0
7.18962 4.5054 4.50809 0 0
7.21173 4.50012 4.44711 0 0
7.25692 4.49206 4.50926 0 0
7.30196 4.484 4.57144 0 0
7.37591 4.46973 4.61385 0 0
7.52101 4.44971 5.20964 0 0
7.47727 4.45214 4.80692 0 0
7.48748 4.44815 4.69151 0 0
7.6414 4.41877 4.84604 0 0
7.69397 4.40975 4.96348 0 0
7.69199 4.40724 4.79371 0 0
7.77254 4.39223 4.90572 0 0
8.02784 4.35659 5.94808 0 0
8.10743 4.34458 6.21625 0 0
8.08421 4.33496 5.18575 0 0
8.13228 4.32786 5.2899 0 0
8.22999 4.31352 5.35617 0 0
8.41599 4.29028 5.58982 0 0
8.50011 4.28036 5.88553 0 0
8.61132 4.26782 5.87842 0 0
8.64862 4.26354 5.92798 0 0
8.7255 4.2545 6.04082 0 0
8.82775 4.24193 6.29053 0 0
8.83606 4.24046 6.18971 0 0
8.9196 4.22789 6.202 0 0
8.99195 4.21803 6.44324 0 0
9.21407 4.17975 6.64139 0 0
2.17658 5.60735 5.05429 0 0
2.19766 5.60021 5.0218 0 0
2.23177 5.59159 5.05769 0 0
2.25305 5.58452 5.02516 0 0
2.28221 5.57655 5.03365 0 0
2.29854 5.57015 4.97373 0 0
2.33306 5.56163 5.00954 0 0
2.35994 5.55404 5.00429 0 0
2.38696 5.54651 4.99902 0 0
2.4115 5.53929 4.98005 0 0
2.44132 5.5315 4.98842 0 0
2.4661 5.52439 4.96941 0 0
2.49877 5.51638 4.9914 0 0
2.52898 5.50874 4.9997 0 0
2.55417 5.50181 4.98062 0 0
2.59241 5.49342 5.0299 0 0
2.62045 5.48634 5.02445 0 0
2.65895 5.47815 5.07369 0 0
2.73627 5.46206 5.17211 0 0
2.75179 5.45693 5.0982 0 0
2.78283 5.45002 5.10636 0 0
2.82679 5.44165 5.18291 0 0
2.86555 5.43397 5.23211 0 0
2.88358 5.42882 5.1719 0 0
2.93253 5.42003 5.27584 0 0
2.9607 5.41377 5.27038 0 0
2.98872 5.40758 5.26495 0 0
3.01917 5.40112 5.27323 0 0
3.03909 5.39596 5.22683 0 0
3.11305 5.38438 5.46773 0 0
3.14285 5.37809 5.47614 0 0
3.1698 5.37214 5.47091 0 0
3.35403 5.34746 6.30016 0 0
3.37007 5.34281 6.24033 0 0
3.40649 5.33572 6.28999 0 0
3.38325 5.33573 6.02508 0 0
3.414 5.32934 6.04748 0 0
3.4368 5.32391 6.02888 0 0
3.4646 5.31793 6.03767 0 0
3.48445 5.31292 6.00546 0 0
3.51195 5.30703 6.0143 0 0
3.44891 5.31198 5.54442 0 0
3.46329 5.30773 5.48491 0 0
3.49826 5.30111 5.53486 0 0
3.52544 5.29546 5.54377 0 0
3.52938 5.29263 5.42957 0 0
3.5488 5.288 5.39745 0 0
3.58376 5.28157 5.4474 0 0
3.60328 5.277 5.41527 0 0
3.63579 5.27092 5.45151 0 0
3.66068 5.26571 5.44669 0 0
3.69086 5.25983 5.46921 0 0
3.72121 5.25386 5.49169 0 0
3.74139 5.24907 5.45943 0 0
3.75659 5.24482 5.39977 0 0
3.77967 5.23965 5.38112 0 0
3.8055 5.23414 5.37612 0 0
3.85474 5.22589 5.4942 0 0
3.87831 5.22073 5.47545 0 0
3.91757 5.21372 5.53875 0 0
3.94666 5.20795 5.5473 0 0
3.97335 5.20249 5.54214 0 0
3.99763 5.19734 5.52327 0 0
4.02211 5.1922 5.50435 0 0
4.04939 5.18674 5.49908 0 0
4.17638 5.16495 5.71556 0 0
4.29596 5.14072 5.72078 0 0
4.32783 5.13416 5.72879 0 0
4.34442 5.12938 5.65468 0 0
4.36639 5.12397 5.60789 0 0
4.39888 5.11727 5.61578 0 0
4.42899 5.11088 5.60995 0 0
4.44377 5.10632 5.52201 0 0
4.46905 5.10052 5.48876 0 0
4.50224 5.09379 5.49652 0 0
4.52782 5.08798 5.46321 0 0
4.54837 5.08278 5.40252 0 0
4.57424 5.07696 5.36915 0 0
4.6002 5.07113 5.33577 0 0
4.63145 5.06468 5.32973 0 0
4.64472 5.06038 5.22791 0 0
4.68649 5.0527 5.27655 0 0
4.71027 5.04716 5.22941 0 0
4.73928 5.04099 5.20962 0 0
4.76577 5.03513 5.17614 0 0
4.78458 5.03018 5.10161 0 0
4.81892 5.02339 5.10914 0 0
4.84813 5.0172 5.08931 0 0
4.8722 5.01163 5.04212 0 0
4.89629 5.00607 4.99493 0 0
4.92813 4.99958 4.98877 0 0
4.95738 4.99341 4.96893 0 0
4.9866 4.98725 4.9491 0 0
5.00545 4.98234 4.87457 0 0
5.03972 4.97563 4.88212 0 0
5.06872 4.96959 4.86233 0 0
5.09499 4.96394 4.8289 0 0
5.12889 4.95743 4.83652 0 0
5.15236 4.95218 4.78945 0 0
5.17834 4.94664 4.75608 0 0
5.2094 4.94047 4.75007 0 0
5.23783 4.9346 4.7304 0 0
5.26361 4.92903 4.69706 0 0
5.29451 4.92282 4.69108 0 0
5.32277 4.91688 4.67144 0 0
5.35099 4.91093 4.6518 0 0
5.38176 4.90463 4.64585 0 0
5.40478 4.89922 4.59886 0 0
5.43815 4.89258 4.60658 0 0
5.45606 4.8878 4.53223 0 0
5.49472 4.88059 4.56728 0 0
5.51806 4.87531 4.52024 0 0
5.5467 4.86949 4.50053 0 0
5.57285 4.86401 4.46712 0 0
5.62228 4.85577 4.55681 0 0
5.6433 4.85086 4.49604 0 0
5.66429 4.84592 4.43527 0 0
5.69039 4.8403 4.40187 0 0
5.71645 4.83462 4.36847 0 0
5.75532 4.82736 4.40349 0 0
5.78637 4.82097 4.39748 0 0
5.81732 4.81456 4.39149 0 0
5.8789 4.80166 4.37958 0 0
5.90434 4.79587 4.34629 0 0
5.93741 4.7892 4.35407 0 0
5.96777 4.78295 4.3482 0 0
6.00057 4.77651 4.35603 0 0
6.03843 4.76954 4.39125 0 0
6.06069 4.76448 4.34441 0 0
6.09578 4.75792 4.36599 0 0
6.1153 4.7532 4.3055 0 0
6.15288 4.74633 4.34077 0 0
6.1801 4.74065 4.32133 0 0
6.2099 4.73463 4.31556 0 0
6.23198 4.72949 4.26876 0 0
6.2696 4.72246 4.30402 0 0
6.29955 4.71631 4.29822 0 0
6.33476 4.7095 4.31977 0 0
6.36234 4.70358 4.30025 0 0
6.40299 4.69611 4.3491 0 0
6.4309 4.69016 4.32953 0 0
6.44092 4.68637 4.21416 0 0
6.48474 4.67859 4.27658 0 0
6.5236 4.67143 4.3116 0 0
6.54197 4.6667 4.23716 0 0
6.58379 4.65917 4.28579 0 0
6.60513 4.65406 4.22495 0 0
6.66535 4.64429 4.36926 0 0
6.69216 4.63845 4.33572 0 0
6.73456 4.63071 4.38424 0 0
6.76678 4.62416 4.37801 0 0
6.79394 4.61818 4.3444 0 0
6.82377 4.61186 4.32445 0 0
6.87435 4.60307 4.41391 0 0
6.90951 4.59612 4.42129 0 0
6.93698 4.59009 4.38762 0 0
6.9955 4.5804 4.51809 0 0
7.02049 4.57474 4.47072 0 0
7.0429 4.56939 4.40968 0 0
7.09372 4.5607 4.4991 0 0
7.129 4.55386 4.50646 0 0
7.16681 4.54672 4.5275 0 0
7.30398 4.51971 4.54352 0 0
7.36432 4.50982 4.68781 0 0
7.3831 4.50487 4.61328 0 0
7.41974 4.49778 4.63455 0 0
7.67823 4.46427 5.83226 0 0
7.63462 4.45836 4.93325 0 0
7.7278 4.43892 4.94357 0 0
7.77479 4.42785 4.87775 0 0
7.89868 4.41044 5.37839 0 0
7.89065 4.40878 5.18144 0 0
7.98184 4.39071 5.20633 0 0
8.06954 4.37437 5.21775 0 0
8.29485 4.34461 6.10999 0 0
8.21015 4.35259 5.36079 0 0
8.5323 4.31237 5.866 0 0
8.62281 4.30203 6.0471 0 0
8.64987 4.29904 6.04193 0 0
8.6717 4.29667 6.00941 0 0
8.70375 4.29301 6.03162 0 0
8.9685 4.25625 6.27844 0 0
9.0379 4.24469 6.36429 0 0
2.17652 5.63688 5.02662 0 0
2.21049 5.62826 5.06253 0 0
2.23423 5.62088 5.04371 0 0
2.26064 5.61322 5.03855 0 0
2.28975 5.60527 5.04705 0 0
2.3138 5.59798 5.02817 0 0
2.33796 5.5907 5.00927 0 0
2.36739 5.58285 5.01771 0 0
2.3866 5.57625 4.97141 0 0
2.41885 5.56814 4.99349 0 0
2.44606 5.56072 4.98818 0 0
2.47595 5.553 4.99654 0 0
2.50083 5.54596 4.97751 0 0
2.53099 5.53836 4.98582 0 0
2.55355 5.53177 4.95306 0 0
2.58658 5.52405 4.97499 0 0
2.62234 5.51613 5.01058 0 0
2.66085 5.50802 5.05982 0 0
2.69173 5.50097 5.06801 0 0
2.75374 5.48714 5.08434 0 0
2.77707 5.48128 5.05145 0 0
2.82107 5.47303 5.128 0 0
2.86502 5.46485 5.20456 0 0
2.92953 5.45147 5.2346 0 0
2.96292 5.44471 5.25649 0 0
2.98843 5.43893 5.23736 0 0
3.02154 5.43228 5.25931 0 0
3.04929 5.42632 5.25394 0 0
3.07685 5.4204 5.2486 0 0
3.14807 5.4093 5.47585 0 0
3.16479 5.4047 5.4159 0 0
3.2019 5.39767 5.46543 0 0
3.38333 5.37342 6.28104 0 0
3.40949 5.36766 6.27597 0 0
3.43797 5.36164 6.28463 0 0
3.42232 5.36085 6.06079 0 0
3.4452 5.35553 6.04217 0 0
3.46789 5.35026 6.0236 0 0
3.49302 5.34473 6.01873 0 0
3.45763 5.34399 5.55766 0 0
3.49274 5.3374 5.60758 0 0
3.5097 5.33302 5.56176 0 0
3.53179 5.32808 5.5433 0 0
3.55385 5.32319 5.52485 0 0
3.56817 5.31926 5.46537 0 0
3.59802 5.31354 5.48795 0 0
3.60465 5.31059 5.38741 0 0
3.63462 5.30488 5.40997 0 0
3.66985 5.29853 5.45987 0 0
3.68973 5.29392 5.42767 0 0
3.72267 5.28764 5.46383 0 0
3.7403 5.28313 5.41788 0 0
3.75807 5.27856 5.3719 0 0
3.80699 5.27027 5.49004 0 0
3.83283 5.26475 5.48503 0 0
3.85624 5.25953 5.46632 0 0
3.88238 5.25402 5.46126 0 0
3.91644 5.24759 5.49721 0 0
3.94551 5.24179 5.50576 0 0
3.98509 5.23477 5.56899 0 0
4.01194 5.22928 5.5638 0 0
4.24303 5.19953 6.63921 0 0
4.06105 5.21894 5.52595 0 0
4.08333 5.21405 5.49328 0 0
4.111 5.20852 5.48793 0 0
4.22387 5.19055 5.77804 0 0
4.23422 5.18691 5.67678 0 0
4.28106 5.17871 5.76697 0 0
4.34972 5.16503 5.81039 0 0
4.35858 5.16118 5.69524 0 0
4.38054 5.15575 5.64845 0 0
4.41306 5.14908 5.65634 0 0
4.41736 5.14576 5.51371 0 0
4.45798 5.13814 5.56257 0 0
4.4807 5.13266 5.51563 0 0
4.51134 5.12625 5.5097 0 0
4.51887 5.12261 5.38064 0 0
4.58341 5.10947 5.38233 0 0
4.612 5.10336 5.36262 0 0
4.64328 5.09694 5.35657 0 0
4.67465 5.0905 5.3505 0 0
4.69579 5.08529 5.28969 0 0
4.70927 5.081 5.18784 0 0
4.77515 5.06778 5.18927 0 0
4.80172 5.06195 5.15578 0 0
4.82835 5.0561 5.12227 0 0
4.85757 5.04995 5.10244 0 0
4.87392 5.04532 5.01421 0 0
4.90318 5.03918 4.99437 0 0
4.93502 5.03272 4.98821 0 0
4.96686 5.02629 4.98206 0 0
4.99348 5.0205 4.94855 0 0
5.02523 5.01411 4.94241 0 0
5.04915 5.0087 4.89525 0 0
5.08072 5.00242 4.88915 0 0
5.10958 4.99651 4.8694 0 0
5.13058 4.99159 4.80862 0 0
5.16697 4.98487 4.82995 0 0
5.19297 4.97938 4.79657 0 0
5.2163 4.97423 4.74953 0 0
5.23957 4.96906 4.7025 0 0
5.27311 4.96265 4.71019 0 0
5.30401 4.95654 4.70422 0 0
5.3323 4.95071 4.68457 0 0
5.36055 4.94486 4.66493 0 0
5.38621 4.93929 4.63162 0 0
5.41443 4.93339 4.61198 0 0
5.44785 4.92687 4.6197 0 0
5.47358 4.92127 4.58636 0 0
5.49163 4.91663 4.51198 0 0
5.53563 4.90895 4.57437 0 0
5.56166 4.90345 4.54098 0 0
5.59036 4.89767 4.52126 0 0
5.61652 4.89218 4.48785 0 0
5.65301 4.88543 4.50915 0 0
5.67916 4.87987 4.47574 0 0
5.70784 4.87394 4.45602 0 0
5.73389 4.86827 4.42263 0 0
5.75987 4.86257 4.38925 0 0
5.79092 4.85619 4.38324 0 0
5.82706 4.84919 4.40461 0 0
5.85016 4.8437 4.3576 0 0
5.87832 4.83761 4.33797 0 0
5.92188 4.8297 4.40044 0 0
5.94463 4.82431 4.3535 0 0
5.97759 4.81777 4.3613 0 0
5.99751 4.81284 4.30073 0 0
6.03022 4.80645 4.30859 0 0
6.06025 4.80043 4.30278 0 0
6.10052 4.7932 4.35171 0 0
6.12006 4.78845 4.29122 0 0
6.15506 4.78186 4.31281 0 0
6.17711 4.77678 4.26601 0 0
6.20693 4.77075 4.26024 0 0
6.23158 4.76531 4.22712 0 0
6.27697 4.75738 4.30341 0 0
6.3095 4.75096 4.3113 0 0
6.33697 4.74512 4.2918 0 0
6.36713 4.73894 4.28597 0 0
6.39487 4.73306 4.26643 0 0
6.43569 4.72562 4.31524 0 0
6.47411 4.71847 4.35035 0 0
6.49982 4.71285 4.31702 0 0
6.52315 4.70752 4.26998 0 0
6.55701 4.70092 4.27761 0 0
6.59621 4.69368 4.31256 0 0
6.61235 4.68917 4.22437 0 0
6.63381 4.68398 4.16351 0 0
6.68641 4.67506 4.26676 0 0
6.71334 4.66918 4.2332 0 0
6.7507 4.66203 4.25433 0 0
6.77785 4.65606 4.22072 0 0
6.82834 4.64732 4.31021 0 0
6.87635 4.63887 4.38599 0 0
6.89601 4.63379 4.3113 0 0
7.00699 4.61245 4.36073 0 0
7.05783 4.60373 4.45015 0 0
7.07248 4.59931 4.34807 0 0
7.12584 4.59029 4.45118 0 0
7.1559 4.58405 4.43119 0 0
7.39396 4.55038 5.33511 0 0
7.43215 4.53235 4.66133 0 0
7.50202 4.51857 4.69035 0 0
7.52231 4.5134 4.62971 0 0
7.59651 4.50179 4.85638 0 0
7.58257 4.50064 4.61804 0 0
7.69747 4.48417 5.0637 0 0
7.7874 4.4623 4.90449 0 0
7.98336 4.4244 5.02254 0 0
8.04187 4.41549 5.18138 0 0
8.12417 4.40099 5.16551 0 0
8.17739 4.39349 5.29703 0 0
8.18929 4.39108 5.20969 0 0
8.23476 4.38486 5.30018 0 0
8.28953 4.37723 5.28966 0 0
8.34274 4.37059 5.4212 0 0
8.52947 4.34829 5.81065 0 0
8.54634 4.34649 5.75073 0 0
8.56832 4.34413 5.71818 0 0
8.93473 4.29715 6.2007 0 0
9.11895 4.26379 6.33524 0 0
9.25458 4.24331 6.7769 0 0
2.19201 5.66464 5.08101 0 0
2.21821 5.65696 5.07589 0 0
2.24449 5.6493 5.07076 0 0
2.27089 5.64167 5.0656 0 0
2.2948 5.63437 5.04675 0 0
2.31623 5.62741 5.0142 0 0
2.3455 5.61956 5.02267 0 0
2.3749 5.61173 5.03111 0 0
2.40182 5.60424 5.02586 0 0
2.42109 5.59773 4.97955 0 0
2.44826 5.59031 4.97426 0 0
2.4807 5.58234 4.9963 0 0
2.50812 5.57502 4.99096 0 0
2.53822 5.56746 4.99928 0 0
2.57623 5.55908 5.0486 0 0
2.62948 5.5454 5.02407 0 0
2.6654 5.53769 5.05963 0 0
2.7092 5.5292 5.13621 0 0
2.73503 5.52297 5.11702 0 0
2.76609 5.51622 5.12518 0 0
2.83607 5.50202 5.18251 0 0
2.86716 5.4955 5.19067 0 0
2.90595 5.48812 5.23987 0 0
2.94724 5.4805 5.30277 0 0
2.95745 5.47662 5.20154 0 0
3.0037 5.46849 5.29184 0 0
3.04979 5.46043 5.38217 0 0
3.07762 5.45458 5.37678 0 0
3.12593 5.44631 5.48086 0 0
3.15592 5.44024 5.48924 0 0
3.18051 5.43482 5.4703 0 0
3.20995 5.42881 5.47878 0 0
3.25198 5.42128 5.55571 0 0
3.28337 5.41498 5.57799 0 0
3.39975 5.39859 6.05172 0 0
3.42549 5.393 6.04674 0 0
3.44847 5.38778 6.02811 0 0
3.47899 5.38167 6.05055 0 0
3.49903 5.37684 6.01831 0 0
3.52926 5.37086 6.04082 0 0
3.54905 5.36614 6.00863 0 0
3.48866 5.37102 5.55241 0 0
3.51344 5.36581 5.54762 0 0
3.5356 5.36096 5.52915 0 0
3.57323 5.35432 5.59276 0 0
3.57987 5.35139 5.49223 0 0
3.60975 5.34573 5.5148 0 0
3.63452 5.3407 5.51001 0 0
3.65418 5.33628 5.47785 0 0
3.68428 5.3306 5.50039 0 0
3.70674 5.32574 5.48186 0 0
3.72682 5.32101 5.44962 0 0
3.76254 5.31431 5.49942 0 0
3.78807 5.3088 5.49447 0 0
3.81117 5.30359 5.47582 0 0
3.83699 5.29803 5.47082 0 0
3.87589 5.29094 5.53418 0 0
3.90203 5.28541 5.52912 0 0
3.92573 5.28018 5.51036 0 0
3.97028 5.27249 5.60099 0 0
3.99432 5.26728 5.58216 0 0
4.01858 5.26207 5.56328 0 0
4.043 5.25686 5.54438 0 0
4.12089 5.24304 5.65693 0 0
4.15887 5.23626 5.70629 0 0
4.20485 5.22851 5.79665 0 0
4.25108 5.22066 5.88696 0 0
4.25884 5.2173 5.77203 0 0
4.30626 5.20634 5.70614 0 0
4.33812 5.19979 5.71415 0 0
4.35214 5.19533 5.62636 0 0
4.38704 5.1884 5.64796 0 0
4.40148 5.18388 5.56009 0 0
4.43678 5.17691 5.58161 0 0
4.44386 5.17331 5.45263 0 0
4.48209 5.16602 5.48777 0 0
4.50758 5.16026 5.45448 0 0
4.53062 5.15479 5.40749 0 0
4.55641 5.14902 5.37414 0 0
4.57734 5.14116 5.14323 0 0
4.62673 5.13261 5.23293 0 0
4.65813 5.12619 5.22686 0 0
4.67154 5.12193 5.12501 0 0
4.71603 5.11397 5.1873 0 0
4.74768 5.10755 5.18118 0 0
4.7794 5.10112 5.17505 0 0
4.80082 5.09592 5.11419 0 0
4.82745 5.0901 5.08068 0 0
4.85669 5.08399 5.06085 0 0
4.88338 5.07817 5.02733 0 0
4.91006 5.07237 4.99382 0 0
4.93675 5.06658 4.9603 0 0
4.96856 5.0602 4.95415 0 0
4.98744 5.05537 4.87961 0 0
5.02176 5.04874 4.88715 0 0
5.05083 5.04279 4.86736 0 0
5.08239 5.03657 4.86126 0 0
5.10867 5.03103 4.82782 0 0
5.13228 5.02586 4.78073 0 0
5.16095 5.02011 4.76101 0 0
5.18954 5.0144 4.74131 0 0
5.22322 5.00809 4.74898 0 0
5.24393 5.00331 4.68827 0 0
5.26975 4.99793 4.65492 0 0
5.29552 4.99254 4.62159 0 0
5.33159 4.9859 4.64298 0 0
5.35989 4.98016 4.62333 0 0
5.38559 4.97471 4.59001 0 0
5.41645 4.96864 4.58404 0 0
5.44475 4.96285 4.56439 0 0
5.47053 4.95736 4.53106 0 0
5.49897 4.95157 4.51138 0 0
5.53007 4.9455 4.50537 0 0
5.56384 4.93912 4.51303 0 0
5.58734 4.93395 4.46595 0 0
5.62896 4.92662 4.51462 0 0
5.65251 4.92139 4.46754 0 0
5.67604 4.91613 4.42045 0 0
5.70472 4.9102 4.40073 0 0
5.74367 4.903 4.43574 0 0
5.76447 4.89791 4.375 0 0
5.79553 4.89155 4.36899 0 0
5.8265 4.88519 4.363 0 0
5.8522 4.87944 4.32967 0 0
5.88298 4.87307 4.32372 0 0
5.91104 4.86705 4.30411 0 0
5.94415 4.86045 4.31188 0 0
5.97712 4.85392 4.31968 0 0
6.01514 4.84682 4.35486 0 0
6.02721 4.84286 4.25328 0 0
6.07793 4.83433 4.3569 0 0
6.09237 4.83015 4.26904 0 0
6.12484 4.82381 4.27693 0 0
6.16242 4.81687 4.3122 0 0
6.18965 4.81115 4.29276 0 0
6.21688 4.80544 4.27332 0 0
6.25188 4.79877 4.2949 0 0
6.28434 4.7924 4.3028 0 0
6.30913 4.78693 4.26965 0 0
6.34176 4.78052 4.27752 0 0
6.35902 4.77593 4.20329 0 0
6.39966 4.76856 4.25215 0 0
6.43272 4.76207 4.25993 0 0
6.46856 4.75525 4.28136 0 0
6.49425 4.74965 4.24803 0 0
6.53563 4.74215 4.29674 0 0
6.55396 4.73739 4.22231 0 0
6.5828 4.73134 4.20255 0 0
6.64024 4.72187 4.33323 0 0
6.6746 4.71514 4.34076 0 0
6.76562 4.69624 4.2948 0 0
6.79277 4.6903 4.2612 0 0
6.84843 4.68097 4.37804 0 0
6.88869 4.67347 4.41279 0 0
6.91094 4.66811 4.35177 0 0
6.93068 4.66306 4.27706 0 0
6.97113 4.65555 4.31178 0 0
7.02452 4.6465 4.41488 0 0
7.06501 4.63901 4.44958 0 0
7.09774 4.63241 4.44326 0 0
7.11752 4.62737 4.36854 0 0
7.17083 4.61832 4.47166 0 0
7.19821 4.61237 4.43801 0 0
7.27331 4.59805 4.4802 0 0
7.39499 4.57553 4.59845 0 0
7.4265 4.56909 4.59236 0 0
7.71237 4.52413 5.4303 0 0
8.22927 4.42745 5.9825 0 0
8.14462 4.43458 5.23327 0 0
8.19939 4.42582 5.22273 0 0
8.28774 4.41372 5.39003 0 0
8.38379 4.40134 5.5984 0 0
8.47463 4.39015 5.77942 0 0
8.49935 4.3872 5.76051 0 0
8.58871 4.37711 5.78593 0 0
8.66488 4.36835 6.04065 0 0
8.71625 4.36283 6.01665 0 0
8.74566 4.3595 6.0252 0 0
8.79376 4.35356 5.98763 0 0
8.88254 4.34148 6.16903 0 0
9.09116 4.30581 6.42648 0 0
9.2193 4.28615 6.82705 0 0
9.25931 4.27684 6.76259 0 0
2.19724 5.69368 5.08068 0 0
2.22341 5.68602 5.07556 0 0
2.24967 5.67841 5.07043 0 0
2.27344 5.67112 5.05161 0 0
2.30764 5.66262 5.08748 0 0
2.32646 5.656 5.04125 0 0
2.35313 5.64849 5.03605 0 0
2.3799 5.64101 5.03083 0 0
2.40677 5.63356 5.02558 0 0
